ply
format ascii 1.0
comment Created by Open3D
element vertex 1710
property double x
property double y
property double z
end_header
0.149611 1.41031 0.039633
0.151959 1.37276 0.0385777
0.154682 1.34147 0.0376983
-0.449525 1.43155 0.0338925
-0.444848 1.4378 0.0340405
-0.439797 1.44301 0.0341638
-0.431569 1.4378 0.0340405
-0.426469 1.44301 0.0341638
-0.424959 1.46072 0.0345832
-0.342946 1.85664 0.0439567
-0.330995 1.83789 0.0435127
-0.320862 1.82851 0.0432906
-0.312419 1.82851 0.0432906
-0.303975 1.82851 0.0432906
-0.297047 1.83789 0.0435127
-0.28856 1.83789 0.0435127
-0.280073 1.83789 0.0435127
-0.2702 1.82851 0.0432906
-0.261756 1.82851 0.0432906
-0.253312 1.82851 0.0432906
-0.244869 1.82851 0.0432906
-0.237637 1.83789 0.0435127
-0.227981 1.82851 0.0432906
-0.220663 1.83789 0.0435127
-0.212176 1.83789 0.0435127
-0.203689 1.83789 0.0435127
-0.194206 1.82851 0.0432906
-0.185762 1.82851 0.0432906
-0.177319 1.82851 0.0432906
-0.168875 1.82851 0.0432906
-0.161254 1.83789 0.0435127
-0.152767 1.83789 0.0435127
-0.14428 1.83789 0.0435127
-0.135793 1.83789 0.0435127
-0.127306 1.83789 0.0435127
-0.118819 1.83789 0.0435127
-0.110332 1.83789 0.0435127
-0.101845 1.83789 0.0435127
-0.0933575 1.83789 0.0435127
-0.0848705 1.83789 0.0435127
-0.0767732 1.84726 0.0437347
-0.0682428 1.84726 0.0437347
-0.0597125 1.84726 0.0437347
-0.0509223 1.83789 0.0435127
-0.0424352 1.83789 0.0435127
-0.0339482 1.83789 0.0435127
-0.0254611 1.83789 0.0435127
-0.0170607 1.84726 0.0437347
-0.00848705 1.83789 0.0435127
0 1.84726 0.0437347
0.00848705 1.83789 0.0435127
0.0169741 1.83789 0.0435127
0.025721 1.85664 0.0439567
0.0341214 1.84726 0.0437347
0.0415692 1.80038 0.0426246
0.063624 1.72224 0.0407746
0.10885 1.47323 0.0348792
0.113772 1.44926 0.0343118
0.118992 1.43155 0.0338925
0.158078 1.42634 0.0337692
-0.444848 1.43608 0.0276272
-0.438209 1.43608 0.0276272
-0.433133 1.44129 0.0277273
-0.426469 1.44129 0.0277273
-0.346603 1.87419 0.0360555
-0.336061 1.86379 0.0358553
-0.322508 1.83569 0.0353148
-0.314021 1.83569 0.0353148
-0.307093 1.84506 0.035495
-0.297047 1.83569 0.0353148
-0.28856 1.83569 0.0353148
-0.280073 1.83569 0.0353148
-0.271586 1.83569 0.0353148
-0.261756 1.82632 0.0351346
-0.253312 1.82632 0.0351346
-0.244869 1.82632 0.0351346
-0.236425 1.82632 0.0351346
-0.227981 1.82632 0.0351346
-0.219537 1.82632 0.0351346
-0.210011 1.81696 0.0349544
-0.201611 1.81696 0.0349544
-0.194206 1.82632 0.0351346
-0.185762 1.82632 0.0351346
-0.177319 1.82632 0.0351346
-0.169741 1.83569 0.0353148
-0.161254 1.83569 0.0353148
-0.152767 1.83569 0.0353148
-0.143544 1.82632 0.0351346
-0.135793 1.83569 0.0353148
-0.127955 1.84506 0.035495
-0.119425 1.84506 0.035495
-0.110895 1.84506 0.035495
-0.102364 1.84506 0.035495
-0.0938339 1.84506 0.035495
-0.0853035 1.84506 0.035495
-0.0771629 1.85442 0.0356751
-0.0685892 1.85442 0.0356751
-0.0597125 1.84506 0.035495
-0.0511821 1.84506 0.035495
-0.0426518 1.84506 0.035495
-0.0341214 1.84506 0.035495
-0.0255911 1.84506 0.035495
-0.0170607 1.84506 0.035495
-0.00853035 1.84506 0.035495
0 1.83569 0.0353148
0.00844375 1.82632 0.0351346
0.0168875 1.82632 0.0351346
0.0554016 1.71185 0.0329324
0.0705378 1.6952 0.0326121
0.0822965 1.6182 0.0311307
0.114671 1.45898 0.0280677
-0.438209 1.43437 0.0212139
-0.350259 1.8917 0.0279778
-0.337938 1.87195 0.0276857
-0.327444 1.86156 0.027532
-0.317225 1.8522 0.0273936
-0.307093 1.84285 0.0272553
-0.298562 1.84285 0.0272553
-0.28856 1.83349 0.0271169
-0.280073 1.83349 0.0271169
-0.271586 1.83349 0.0271169
-0.261756 1.82414 0.0269786
-0.253312 1.82414 0.0269786
-0.244869 1.82414 0.0269786
-0.236425 1.82414 0.0269786
-0.22915 1.83349 0.0271169
-0.220663 1.83349 0.0271169
-0.211094 1.82414 0.0269786
-0.20265 1.82414 0.0269786
-0.194206 1.82414 0.0269786
-0.185762 1.82414 0.0269786
-0.177319 1.82414 0.0269786
-0.168875 1.82414 0.0269786
-0.161254 1.83349 0.0271169
-0.151987 1.82414 0.0269786
-0.14428 1.83349 0.0271169
-0.135793 1.83349 0.0271169
-0.127955 1.84285 0.0272553
-0.119425 1.84285 0.0272553
-0.110895 1.84285 0.0272553
-0.102364 1.84285 0.0272553
-0.0938339 1.84285 0.0272553
-0.0857365 1.8522 0.0273936
-0.0771629 1.8522 0.0273936
-0.0685892 1.8522 0.0273936
-0.0600156 1.8522 0.0273936
-0.0514419 1.8522 0.0273936
-0.0428683 1.8522 0.0273936
-0.0341214 1.84285 0.0272553
-0.0255911 1.84285 0.0272553
-0.0172339 1.86156 0.027532
-0.00857365 1.8522 0.0273936
0 1.8522 0.0273936
0.00857365 1.8522 0.0273936
0.0168875 1.82414 0.0269786
0.0621229 1.67758 0.0248111
-0.330918 1.87905 0.0194124
-0.320607 1.86971 0.0193159
-0.31021 1.85933 0.0192086
-0.300078 1.84998 0.0191121
-0.28856 1.8313 0.0189191
-0.280073 1.8313 0.0189191
-0.271586 1.8313 0.0189191
-0.263099 1.8313 0.0189191
-0.253312 1.82195 0.0188225
-0.244869 1.82195 0.0188225
-0.237637 1.8313 0.0189191
-0.227981 1.82195 0.0188225
-0.219537 1.82195 0.0188225
-0.211094 1.82195 0.0188225
-0.20265 1.82195 0.0188225
-0.194206 1.82195 0.0188225
-0.185762 1.82195 0.0188225
-0.177319 1.82195 0.0188225
-0.168875 1.82195 0.0188225
-0.161254 1.8313 0.0189191
-0.151987 1.82195 0.0188225
-0.143544 1.82195 0.0188225
-0.135793 1.8313 0.0189191
-0.127955 1.84064 0.0190156
-0.120031 1.84998 0.0191121
-0.110895 1.84064 0.0190156
-0.102364 1.84064 0.0190156
-0.0943102 1.84998 0.0191121
-0.0857365 1.84998 0.0191121
-0.0771629 1.84998 0.0191121
-0.0685892 1.84998 0.0191121
-0.0600156 1.84998 0.0191121
-0.0514419 1.84998 0.0191121
-0.0428683 1.84998 0.0191121
-0.0342946 1.84998 0.0191121
-0.0258509 1.85933 0.0192086
-0.0173301 1.86971 0.0193159
-0.00870837 1.87905 0.0194124
0 1.86971 0.0193159
0.00857365 1.84998 0.0191121
0.0491325 1.76693 0.0182541
0.0554016 1.70776 0.0176428
-0.311942 1.86747 0.0109461
-0.300078 1.84776 0.0108306
-0.290032 1.83843 0.0107759
-0.28293 1.84776 0.0108306
-0.272971 1.83843 0.0107759
-0.263099 1.8291 0.0107212
-0.253312 1.81977 0.0106665
-0.244869 1.81977 0.0106665
-0.236425 1.81977 0.0106665
-0.22915 1.8291 0.0107212
-0.218412 1.81044 0.0106118
-0.210011 1.81044 0.0106118
-0.201611 1.81044 0.0106118
-0.19321 1.81044 0.0106118
-0.185762 1.81977 0.0106665
-0.176409 1.81044 0.0106118
-0.168009 1.81044 0.0106118
-0.160431 1.81977 0.0106665
-0.151987 1.81977 0.0106665
-0.143544 1.81977 0.0106665
-0.1351 1.81977 0.0106665
-0.127306 1.8291 0.0107212
-0.118819 1.8291 0.0107212
-0.110895 1.83843 0.0107759
-0.101845 1.8291 0.0107212
-0.0933575 1.8291 0.0107212
-0.0853035 1.83843 0.0107759
-0.0767732 1.83843 0.0107759
-0.0685892 1.84776 0.0108306
-0.0600156 1.84776 0.0108306
-0.0514419 1.84776 0.0108306
-0.0428683 1.84776 0.0108306
-0.0341214 1.83843 0.0107759
-0.0258509 1.8571 0.0108853
-0.0174167 1.8768 0.0110008
-0.00880459 1.89754 0.0111223
0 1.89754 0.0111223
0.00880459 1.89754 0.0111223
0.0174167 1.8768 0.0110008
0.0411603 1.77414 0.0103991
0.0496233 1.78244 0.0104477
-0.303277 1.86522 0.00257628
-0.294612 1.86522 0.00257628
-0.285947 1.86522 0.00257628
-0.275742 1.85487 0.00256197
-0.264441 1.83622 0.00253623
-0.254611 1.8269 0.00252335
-0.243613 1.80826 0.0024976
-0.236425 1.81758 0.00251048
-0.22915 1.8269 0.00252335
-0.217286 1.79894 0.00248473
-0.208929 1.79894 0.00248473
-0.200571 1.79894 0.00248473
-0.192214 1.79894 0.00248473
-0.18481 1.80826 0.0024976
-0.176409 1.80826 0.0024976
-0.168009 1.80826 0.0024976
-0.159608 1.80826 0.0024976
-0.151208 1.80826 0.0024976
-0.142808 1.80826 0.0024976
-0.1351 1.81758 0.00251048
-0.127306 1.8269 0.00252335
-0.118819 1.8269 0.00252335
-0.110332 1.8269 0.00252335
-0.102364 1.83622 0.00253623
-0.0938339 1.83622 0.00253623
-0.0853035 1.83622 0.00253623
-0.0767732 1.83622 0.00253623
-0.0682428 1.83622 0.00253623
-0.0603187 1.85487 0.00256197
-0.0517017 1.85487 0.00256197
-0.0428683 1.84555 0.0025491
-0.0341214 1.83622 0.00253623
-0.0258509 1.85487 0.00256197
-0.0176092 1.89526 0.00261776
-0.00890082 1.91597 0.00264637
0 1.93668 0.00267498
0.00899704 1.93668 0.00267498
0.0177054 1.90561 0.00263207
0.0391876 1.68709 0.00233024
-0.29772 1.88263 -0.00585465
-0.285947 1.86298 -0.00579353
-0.274357 1.84333 -0.00573241
-0.264441 1.83402 -0.00570346
-0.255911 1.83402 -0.00570346
-0.244869 1.8154 -0.00564556
-0.236425 1.8154 -0.00564556
-0.226812 1.80609 -0.0056166
-0.218412 1.80609 -0.0056166
-0.208929 1.79678 -0.00558765
-0.200571 1.79678 -0.00558765
-0.192214 1.79678 -0.00558765
-0.183857 1.79678 -0.00558765
-0.176409 1.80609 -0.0056166
-0.168009 1.80609 -0.0056166
-0.159608 1.80609 -0.0056166
-0.151208 1.80609 -0.0056166
-0.143544 1.8154 -0.00564556
-0.135793 1.82471 -0.00567451
-0.127306 1.82471 -0.00567451
-0.117606 1.80609 -0.0056166
-0.110332 1.82471 -0.00567451
-0.102884 1.84333 -0.00573241
-0.0933575 1.82471 -0.00567451
-0.0848705 1.82471 -0.00567451
-0.0771629 1.84333 -0.00573241
-0.0685892 1.84333 -0.00573241
-0.0600156 1.84333 -0.00573241
-0.0517017 1.85264 -0.00576136
-0.0437824 1.88263 -0.00585465
-0.0350259 1.88263 -0.00585465
-0.0262694 1.88263 -0.00585465
-0.017513 1.88263 -0.00585465
0 1.92401 -0.00598332
0.00904515 1.9447 -0.00604766
0.0178979 1.92401 -0.00598332
0.0269911 1.93435 -0.00601549
-0.280207 1.88037 -0.0143128
-0.267126 1.85041 -0.0140847
-0.25721 1.84111 -0.0140139
-0.246124 1.82251 -0.0138724
-0.234 1.79461 -0.01366
-0.225643 1.79461 -0.01366
-0.218412 1.80391 -0.0137308
-0.210011 1.80391 -0.0137308
-0.200571 1.79461 -0.01366
-0.192214 1.79461 -0.01366
-0.183857 1.79461 -0.01366
-0.1755 1.79461 -0.01366
-0.168009 1.80391 -0.0137308
-0.159608 1.80391 -0.0137308
-0.150429 1.79461 -0.01366
-0.142808 1.80391 -0.0137308
-0.1351 1.81321 -0.0138016
-0.126656 1.81321 -0.0138016
-0.118212 1.81321 -0.0138016
-0.109769 1.81321 -0.0138016
-0.101845 1.82251 -0.0138724
-0.0933575 1.82251 -0.0138724
-0.0853035 1.83181 -0.0139431
-0.0771629 1.84111 -0.0140139
-0.0685892 1.84111 -0.0140139
-0.0603187 1.85041 -0.0140847
-0.0522502 1.87004 -0.0142341
-0.0437824 1.88037 -0.0143128
-0.0350259 1.88037 -0.0143128
-0.0264138 1.8907 -0.0143914
-0.0177054 1.90103 -0.01447
-0.00890082 1.91136 -0.0145487
0.00914619 1.96405 -0.0149498
0.0183982 1.97542 -0.0150363
0.0272798 1.95269 -0.0148633
-0.286366 1.91938 -0.0232713
-0.271451 1.8781 -0.0227709
-0.25721 1.83889 -0.0222954
-0.246124 1.82031 -0.0220702
-0.235213 1.80174 -0.021845
-0.225643 1.79245 -0.0217324
-0.217286 1.79245 -0.0217324
-0.208929 1.79245 -0.0217324
-0.201611 1.80174 -0.021845
-0.19321 1.80174 -0.021845
-0.183857 1.79245 -0.0217324
-0.1755 1.79245 -0.0217324
-0.168009 1.80174 -0.021845
-0.159608 1.80174 -0.021845
-0.151208 1.80174 -0.021845
-0.143544 1.81103 -0.0219576
-0.1351 1.81103 -0.0219576
-0.126656 1.81103 -0.0219576
-0.118819 1.82031 -0.0220702
-0.109769 1.81103 -0.0219576
-0.100805 1.80174 -0.021845
-0.0928812 1.81103 -0.0219576
-0.0848705 1.82031 -0.0220702
-0.0767732 1.8296 -0.0221828
-0.0685892 1.83889 -0.0222954
-0.0600156 1.83889 -0.0222954
-0.0517017 1.84818 -0.022408
-0.0430848 1.84818 -0.022408
-0.0342946 1.83889 -0.0222954
-0.0258509 1.84818 -0.022408
-0.0173301 1.85849 -0.0225332
-0.00870837 1.86778 -0.0226458
0 1.88842 -0.022896
0.00904515 1.94002 -0.0235216
0.0183982 1.97304 -0.0239219
0.0274386 1.96169 -0.0237843
0.0387402 2.07726 -0.0251856
-0.258509 1.84595 -0.0307314
-0.246124 1.81812 -0.0302681
-0.237637 1.81812 -0.0302681
-0.226812 1.79956 -0.0299592
-0.217286 1.79029 -0.0298048
-0.208929 1.79029 -0.0298048
-0.200571 1.79029 -0.0298048
-0.192214 1.79029 -0.0298048
-0.183857 1.79029 -0.0298048
-0.1755 1.79029 -0.0298048
-0.168009 1.79956 -0.0299592
-0.159608 1.79956 -0.0299592
-0.151987 1.80884 -0.0301137
-0.143544 1.80884 -0.0301137
-0.135793 1.81812 -0.0302681
-0.126656 1.80884 -0.0301137
-0.119425 1.82739 -0.0304225
-0.110332 1.81812 -0.0302681
-0.101325 1.80884 -0.0301137
-0.0933575 1.81812 -0.0302681
-0.0848705 1.81812 -0.0302681
-0.0767732 1.82739 -0.0304225
-0.0689356 1.84595 -0.0307314
-0.0609586 1.86553 -0.0310574
-0.0522502 1.86553 -0.0310574
-0.0435418 1.86553 -0.0310574
-0.0348335 1.86553 -0.0310574
-0.0259952 1.85625 -0.030903
-0.017513 1.87583 -0.031229
-0.00875648 1.87583 -0.031229
0 1.88614 -0.0314006
0.00870837 1.86553 -0.0310574
0.0268468 1.91706 -0.0319153
0.167432 1.49448 -0.0248802
-0.272942 1.88386 -0.0399051
-0.259952 1.85401 -0.0392728
-0.248636 1.83445 -0.0388585
-0.237637 1.81592 -0.0384659
-0.22915 1.81592 -0.0384659
-0.218412 1.79739 -0.0380734
-0.210011 1.79739 -0.0380734
-0.200571 1.78813 -0.0378772
-0.192214 1.78813 -0.0378772
-0.183857 1.78813 -0.0378772
-0.1755 1.78813 -0.0378772
-0.168009 1.79739 -0.0380734
-0.161254 1.81592 -0.0384659
-0.153546 1.82519 -0.0386622
-0.145752 1.83445 -0.0388585
-0.136486 1.82519 -0.0386622
-0.127955 1.82519 -0.0386622
-0.119425 1.82519 -0.0386622
-0.111457 1.83445 -0.0388585
-0.103403 1.84371 -0.0390547
-0.0943102 1.83445 -0.0388585
-0.0857365 1.83445 -0.0388585
-0.0775526 1.84371 -0.0390547
-0.0696669 1.86327 -0.039469
-0.0609586 1.86327 -0.039469
-0.0525389 1.87357 -0.0396871
-0.0437824 1.87357 -0.0396871
0.157799 1.46797 -0.0310955
0.166046 1.48032 -0.0313572
-0.259952 1.85177 -0.0476426
-0.24738 1.82298 -0.0469019
-0.237637 1.81372 -0.0466638
-0.227981 1.80447 -0.0464257
-0.218412 1.79522 -0.0461876
-0.210011 1.79522 -0.0461876
-0.200571 1.78596 -0.0459496
-0.192214 1.78596 -0.0459496
-0.18481 1.79522 -0.0461876
-0.177319 1.80447 -0.0464257
-0.168009 1.79522 -0.0461876
-0.159608 1.79522 -0.0461876
-0.152767 1.81372 -0.0466638
-0.115085 1.89187 -0.0486743
-0.10681 1.90215 -0.0489388
-0.0984382 1.91243 -0.0492033
-0.0890082 1.90215 -0.0489388
-0.0801074 1.90215 -0.0489388
-0.0712065 1.90215 -0.0489388
-0.0623057 1.90215 -0.0489388
-0.0534049 1.90215 -0.0489388
-0.0449852 1.92271 -0.0494679
-0.0814064 1.93065 -0.0584693
-0.0534049 1.89984 -0.0575363
0.141148 1.43464 -0.0434477
0.124597 1.39803 -0.0487246
0.13943 1.41546 -0.0493323
0.153926 1.42501 -0.0561899
0.126151 1.41203 -0.0621589
0.117087 1.38169 -0.0671808
0.125603 1.40418 -0.068274
0.138824 1.40418 -0.068274
-0.39968 1.43717 -0.0765069
0.143106 1.38001 -0.073464
-0.406455 1.43542 -0.0830503
-0.39968 1.43542 -0.0830503
-0.391232 1.4293 -0.0826964
-0.384486 1.4293 -0.0826964
-0.379358 1.43542 -0.0830503
-0.372583 1.43542 -0.0830503
-0.365809 1.43542 -0.0830503
-0.359035 1.43542 -0.0830503
-0.353762 1.44153 -0.0834042
-0.348431 1.44765 -0.0837581
-0.333478 1.47212 -0.0851738
-0.332183 1.4976 -0.0866484
-0.316272 1.52309 -0.088123
-0.269334 1.58528 -0.091721
-0.264378 1.60057 -0.0926058
-0.25797 1.60771 -0.0930187
-0.250382 1.60771 -0.0930187
-0.0306188 1.62198 -0.0938445
-0.0231806 1.63727 -0.0947293
-0.41829 1.40515 -0.087812
-0.413142 1.41024 -0.0881302
-0.40325 1.39904 -0.0874302
-0.393464 1.38784 -0.0867303
-0.383784 1.37664 -0.0860303
-0.374489 1.36646 -0.085394
-0.369403 1.37155 -0.0857122
-0.365886 1.38275 -0.0864121
-0.362263 1.39395 -0.0871121
-0.356976 1.39904 -0.0874302
-0.351895 1.40515 -0.087812
-0.346506 1.41024 -0.0881302
-0.341315 1.41635 -0.088512
-0.334623 1.41635 -0.088512
-0.329345 1.42246 -0.0888938
-0.326549 1.43977 -0.0899755
-0.321103 1.44588 -0.0903573
-0.319583 1.47032 -0.0918845
-0.32346 1.52123 -0.0950661
-0.320506 1.54159 -0.0963387
-0.31467 1.54872 -0.0967841
-0.308767 1.55585 -0.0972296
-0.305361 1.57621 -0.0985022
-0.300607 1.59047 -0.099393
-0.293092 1.59047 -0.099393
-0.285577 1.59047 -0.099393
-0.275569 1.57621 -0.0985022
-0.266909 1.56909 -0.0980568
-0.259495 1.56909 -0.0980568
-0.250936 1.56196 -0.0976113
-0.243555 1.56196 -0.0976113
-0.23833 1.57621 -0.0985022
-0.23297 1.59047 -0.099393
-0.22762 1.60574 -0.100348
-0.22101 1.61287 -0.100793
-0.215409 1.62814 -0.101747
-0.207716 1.62814 -0.101747
-0.200899 1.63527 -0.102193
-0.19233 1.62814 -0.101747
-0.185445 1.63527 -0.102193
-0.180263 1.65869 -0.103656
-0.173272 1.66684 -0.104165
-0.165396 1.66684 -0.104165
-0.15829 1.67498 -0.104674
-0.150376 1.67498 -0.104674
-0.142461 1.67498 -0.104674
-0.124862 1.65156 -0.103211
-0.0455241 1.60574 -0.100348
-0.0375759 1.59047 -0.099393
-0.0302147 1.59861 -0.0999021
-0.022762 1.60574 -0.100348
-0.0150304 1.59047 -0.099393
-0.00741414 1.56909 -0.0980568
0 1.52123 -0.0950661
0.00703405 1.48865 -0.0930298
0.0138949 1.47032 -0.0918845
0.0207557 1.46421 -0.0915027
0.0466451 1.41024 -0.0881302
0.0528853 1.39904 -0.0874302
0.0588031 1.38275 -0.0864121
0.0650481 1.37664 -0.0860303
0.0712883 1.37155 -0.0857122
0.0771917 1.36137 -0.0850759
0.0829364 1.35017 -0.0843759
0.0893161 1.35017 -0.0843759
0.095335 1.34508 -0.0840577
0.101691 1.34508 -0.0840577
0.127157 1.41635 -0.088512
0.130674 1.38275 -0.0864121
0.136601 1.37664 -0.0860303
-0.423082 1.39733 -0.0938156
-0.416472 1.39733 -0.0938156
-0.405088 1.38106 -0.0927232
-0.393859 1.36479 -0.0916307
-0.384227 1.3536 -0.0908796
-0.379526 1.3597 -0.0912893
-0.373093 1.3597 -0.0912893
-0.366661 1.3597 -0.0912893
-0.361575 1.36479 -0.0916307
-0.356442 1.36987 -0.0919721
-0.35126 1.37496 -0.0923135
-0.34756 1.38614 -0.0930646
-0.343754 1.39733 -0.0938156
-0.338616 1.40343 -0.0942253
-0.330533 1.39733 -0.0938156
-0.325337 1.40343 -0.0942253
-0.321238 1.41462 -0.0949764
-0.318389 1.43191 -0.0961371
-0.314271 1.44411 -0.0969565
-0.312635 1.46852 -0.0985952
-0.31352 1.50615 -0.101122
-0.310533 1.52649 -0.102487
-0.308767 1.55395 -0.104331
-0.305361 1.57429 -0.105696
-0.29926 1.58141 -0.106174
-0.291778 1.58141 -0.106174
-0.284297 1.58141 -0.106174
-0.274323 1.56717 -0.105218
-0.266909 1.56717 -0.105218
-0.259495 1.56717 -0.105218
-0.249954 1.55395 -0.104331
-0.243555 1.56005 -0.10474
-0.236175 1.56005 -0.10474
-0.229838 1.56717 -0.105218
-0.224445 1.58141 -0.106174
-0.219056 1.59666 -0.107198
-0.211503 1.59666 -0.107198
-0.20291 1.58852 -0.106652
-0.196395 1.59666 -0.107198
-0.189684 1.60378 -0.107676
-0.182096 1.60378 -0.107676
-0.174509 1.60378 -0.107676
-0.166181 1.59666 -0.107198
-0.159334 1.60378 -0.107676
-0.100228 1.51327 -0.101599
-0.0930689 1.51327 -0.101599
-0.0859097 1.51327 -0.101599
-0.0794386 1.52649 -0.102487
-0.0715914 1.51327 -0.101599
-0.0641292 1.50615 -0.101122
-0.0575041 1.51937 -0.102009
-0.0507539 1.53259 -0.102897
-0.0433301 1.52649 -0.102487
-0.035483 1.50005 -0.100712
-0.0282709 1.49394 -0.100302
-0.0212032 1.49394 -0.100302
-0.0140681 1.48683 -0.0998242
-0.00697632 1.47462 -0.0990049
0 1.46852 -0.0985952
0.0466451 1.40852 -0.0945667
0.0526928 1.39225 -0.0934742
0.0585433 1.37496 -0.0923135
0.064567 1.36479 -0.0916307
0.0710237 1.36479 -0.0916307
0.0768453 1.3536 -0.0908796
0.0829364 1.34852 -0.0905382
0.0896529 1.3536 -0.0908796
0.0968505 1.36479 -0.0916307
0.103692 1.36987 -0.0919721
0.110582 1.37496 -0.0923135
-0.424689 1.37937 -0.0990342
-0.423082 1.39562 -0.100201
-0.413137 1.38445 -0.0993989
-0.398824 1.35804 -0.0975028
-0.386228 1.33671 -0.0959713
-0.382783 1.34687 -0.0967006
-0.376404 1.34687 -0.0967006
-0.370024 1.34687 -0.0967006
-0.365015 1.35194 -0.0970652
-0.360228 1.35804 -0.0975028
-0.353795 1.35804 -0.0975028
-0.347363 1.35804 -0.0975028
-0.342205 1.36312 -0.0978674
-0.339751 1.37937 -0.0990342
-0.337144 1.39562 -0.100201
-0.330533 1.39562 -0.100201
-0.325337 1.40172 -0.100639
-0.322623 1.41898 -0.101878
-0.318389 1.43016 -0.102681
-0.314271 1.44234 -0.103556
-0.311336 1.46063 -0.104868
-0.31225 1.49821 -0.107567
-0.307843 1.51141 -0.108515
-0.307352 1.54493 -0.110921
-0.302599 1.55814 -0.111869
-0.295218 1.55814 -0.111869
-0.287838 1.55814 -0.111869
-0.281737 1.56525 -0.11238
-0.273077 1.55814 -0.111869
-0.266909 1.56525 -0.11238
-0.259495 1.56525 -0.11238
-0.253226 1.57236 -0.11289
-0.244667 1.56525 -0.11238
-0.23833 1.57236 -0.11289
-0.230882 1.57236 -0.11289
-0.224445 1.57947 -0.113401
-0.216963 1.57947 -0.113401
-0.209482 1.57947 -0.113401
-0.200182 1.56525 -0.11238
-0.193643 1.57236 -0.11289
-0.185353 1.56525 -0.11238
-0.177939 1.56525 -0.11238
-0.170525 1.56525 -0.11238
-0.163111 1.56525 -0.11238
-0.113084 1.49212 -0.107129
-0.0980726 1.47891 -0.106181
-0.0910674 1.47891 -0.106181
-0.0840622 1.47891 -0.106181
-0.0773746 1.48501 -0.106619
-0.0700518 1.47891 -0.106181
-0.0630466 1.47891 -0.106181
-0.0560415 1.47891 -0.106181
-0.0488342 1.47282 -0.105743
-0.0420311 1.47891 -0.106181
-0.0348816 1.47282 -0.105743
-0.0279053 1.47282 -0.105743
-0.0209289 1.47282 -0.105743
-0.0138372 1.46063 -0.104868
0.0269815 1.42406 -0.102243
0.0401547 1.41289 -0.101441
0.0464767 1.40172 -0.100639
0.0526928 1.39054 -0.0998364
0.0585433 1.37327 -0.0985967
0.0710237 1.36312 -0.0978674
0.0829364 1.34687 -0.0967006
0.0893161 1.34687 -0.0967006
0.0956958 1.34687 -0.0967006
0.103692 1.3682 -0.098232
0.118039 1.38445 -0.0993989
-0.432811 1.38275 -0.105733
-0.426253 1.38275 -0.105733
-0.416308 1.37159 -0.10488
-0.403438 1.35029 -0.103251
-0.39256 1.33507 -0.102087
-0.386228 1.33507 -0.102087
-0.38134 1.34014 -0.102475
-0.374984 1.34014 -0.102475
-0.370024 1.34521 -0.102863
-0.363644 1.34521 -0.102863
-0.358611 1.35029 -0.103251
-0.352208 1.35029 -0.103251
-0.345804 1.35029 -0.103251
-0.34093 1.35637 -0.103716
-0.336999 1.36652 -0.104492
-0.333218 1.37768 -0.105345
-0.327887 1.38275 -0.105733
-0.323922 1.39391 -0.106586
-0.319852 1.40507 -0.10744
-0.315902 1.41724 -0.108371
-0.311615 1.4284 -0.109224
-0.308738 1.44666 -0.11062
-0.308228 1.4771 -0.112948
-0.305154 1.49637 -0.114421
-0.301896 1.51565 -0.115895
-0.298654 1.53594 -0.117447
-0.294064 1.55014 -0.118533
-0.287838 1.55623 -0.118998
-0.280458 1.55623 -0.118998
-0.273077 1.55623 -0.118998
-0.264657 1.55014 -0.118533
-0.258316 1.55623 -0.118998
-0.250936 1.55623 -0.118998
-0.242603 1.55014 -0.118533
-0.235251 1.55014 -0.118533
-0.227899 1.55014 -0.118533
-0.219537 1.54304 -0.11799
-0.210266 1.52884 -0.116904
-0.201264 1.51565 -0.115895
-0.193297 1.50956 -0.11543
-0.185262 1.50246 -0.114887
-0.17513 1.4771 -0.112948
-0.169626 1.49029 -0.113956
-0.163886 1.50246 -0.114887
-0.156125 1.49637 -0.114421
-0.148422 1.49029 -0.113956
-0.141355 1.49029 -0.113956
-0.133098 1.4771 -0.112948
-0.123495 1.44666 -0.11062
-0.116634 1.44666 -0.11062
-0.110235 1.45275 -0.111086
-0.103346 1.45275 -0.111086
-0.096456 1.45275 -0.111086
-0.0899415 1.45884 -0.111551
-0.0826766 1.45275 -0.111086
-0.0761044 1.45884 -0.111551
-0.0691858 1.45884 -0.111551
-0.0345929 1.45884 -0.111551
-0.013664 1.44058 -0.110155
0 1.43449 -0.109689
0.0134908 1.42232 -0.108759
0.0202361 1.42232 -0.108759
0.0269815 1.42232 -0.108759
0.0337269 1.42232 -0.108759
0.0401547 1.41116 -0.107905
0.0464767 1.4 -0.107052
0.0526928 1.38884 -0.106199
0.0583268 1.36652 -0.104492
0.0829364 1.34521 -0.102863
0.0896529 1.35029 -0.103251
0.0964897 1.35637 -0.103716
0.102922 1.35637 -0.103716
0.138824 1.39391 -0.106586
-0.438209 1.39828 -0.113465
-0.421249 1.36484 -0.110752
-0.409842 1.34863 -0.109436
-0.398891 1.33343 -0.108203
-0.391068 1.32836 -0.107792
-0.386228 1.33343 -0.108203
-0.379896 1.33343 -0.108203
-0.373565 1.33343 -0.108203
-0.368629 1.3385 -0.108614
-0.362273 1.3385 -0.108614
-0.357264 1.34356 -0.109025
-0.350885 1.34356 -0.109025
-0.344505 1.34356 -0.109025
-0.3394 1.34863 -0.109436
-0.334498 1.35471 -0.10993
-0.330519 1.36484 -0.110752
-0.326684 1.37599 -0.111656
-0.322744 1.38713 -0.112561
-0.318697 1.39828 -0.113465
-0.314545 1.40942 -0.11437
-0.311615 1.42665 -0.115767
-0.308738 1.44489 -0.117247
-0.306958 1.46921 -0.119221
-0.302464 1.48136 -0.120207
-0.296845 1.48846 -0.120783
-0.292144 1.50062 -0.12177
-0.28752 1.51379 -0.122838
-0.284085 1.53405 -0.124483
-0.276801 1.53405 -0.124483
-0.268271 1.52696 -0.123907
-0.257729 1.50771 -0.122345
-0.246192 1.48136 -0.120207
-0.237195 1.46921 -0.119221
-0.232124 1.48136 -0.120207
-0.226167 1.48846 -0.120783
-0.2191 1.48846 -0.120783
-0.211022 1.48136 -0.120207
-0.20315 1.47528 -0.119714
-0.194529 1.46313 -0.118727
-0.185243 1.44489 -0.117247
-0.178382 1.44489 -0.117247
-0.172243 1.45097 -0.117741
-0.16466 1.44489 -0.117247
-0.158463 1.45097 -0.117741
-0.151574 1.45097 -0.117741
-0.143472 1.43881 -0.116754
-0.136062 1.43273 -0.116261
-0.129259 1.43273 -0.116261
-0.122456 1.43273 -0.116261
-0.116144 1.43881 -0.116754
-0.109312 1.43881 -0.116754
-0.10248 1.43881 -0.116754
-0.0952436 1.43273 -0.116261
-0.0884404 1.43273 -0.116261
-0.0819837 1.43881 -0.116754
-0.0748342 1.43273 -0.116261
-0.0677424 1.42665 -0.115767
-0.0609682 1.42665 -0.115767
-0.0476218 1.43273 -0.116261
-0.0204093 1.43273 -0.116261
-0.0135485 1.42665 -0.115767
0 1.42665 -0.115767
0.0134908 1.42057 -0.115274
0.0202361 1.42057 -0.115274
0.0268853 1.4155 -0.114863
0.0337269 1.42057 -0.115274
0.0464767 1.39828 -0.113465
0.0526928 1.38713 -0.112561
0.0583268 1.36484 -0.110752
0.0707591 1.35471 -0.10993
0.0829364 1.34356 -0.109025
0.0896529 1.34863 -0.109436
0.0964897 1.35471 -0.10993
0.12414 1.37599 -0.111656
0.132213 1.3922 -0.112972
0.138824 1.3922 -0.112972
-0.431223 1.3743 -0.117967
-0.405223 1.33179 -0.114319
-0.39586 1.32167 -0.11345
-0.391068 1.32673 -0.113885
-0.386228 1.33179 -0.114319
-0.379896 1.33179 -0.114319
-0.373565 1.33179 -0.114319
-0.367233 1.33179 -0.114319
-0.362273 1.33685 -0.114753
-0.357264 1.34191 -0.115188
-0.350885 1.34191 -0.115188
-0.344505 1.34191 -0.115188
-0.338125 1.34191 -0.115188
-0.331745 1.34191 -0.115188
-0.326593 1.34697 -0.115622
-0.325241 1.36822 -0.117446
-0.32015 1.3743 -0.117967
-0.314771 1.37936 -0.118402
-0.310701 1.39049 -0.119357
-0.307853 1.40769 -0.120834
-0.304841 1.4249 -0.122311
-0.301877 1.44311 -0.123874
-0.29874 1.46133 -0.125438
-0.291793 1.46133 -0.125438
-0.284845 1.46133 -0.125438
-0.283864 1.4927 -0.128131
-0.279207 1.50586 -0.12926
-0.268574 1.48663 -0.12761
-0.259192 1.47347 -0.12648
-0.252187 1.47347 -0.12648
-0.24215 1.45526 -0.124917
-0.232287 1.43704 -0.123353
-0.228313 1.45526 -0.124917
-0.220471 1.44918 -0.124396
-0.210896 1.43097 -0.122832
-0.204959 1.43704 -0.123353
-0.19729 1.43097 -0.122832
-0.189679 1.4249 -0.122311
-0.182125 1.41882 -0.12179
-0.174754 1.41376 -0.121355
-0.168033 1.41376 -0.121355
-0.161312 1.41376 -0.121355
-0.155144 1.41882 -0.12179
-0.149033 1.4249 -0.122311
-0.142259 1.4249 -0.122311
-0.135485 1.4249 -0.122311
-0.128162 1.41882 -0.12179
-0.121417 1.41882 -0.12179
-0.115162 1.4249 -0.122311
-0.10885 1.43097 -0.122832
-0.101181 1.41882 -0.12179
-0.0944353 1.41882 -0.12179
-0.0876899 1.41882 -0.12179
-0.0812909 1.4249 -0.122311
-0.0748342 1.43097 -0.122832
-0.0672132 1.41376 -0.121355
-0.0604919 1.41376 -0.121355
-0.053963 1.41882 -0.12179
-0.0472176 1.41882 -0.12179
-0.0404723 1.41882 -0.12179
-0.0337269 1.41882 -0.12179
-0.0269815 1.41882 -0.12179
-0.0134908 1.41882 -0.12179
0 1.41376 -0.121355
0.0267698 1.40769 -0.120834
0.0336066 1.41376 -0.121355
0.0399815 1.40162 -0.120313
0.0462746 1.39049 -0.119357
0.0522694 1.3743 -0.117967
0.0768453 1.34697 -0.115622
0.0829364 1.34191 -0.115188
0.0896529 1.34697 -0.115622
0.0968505 1.3581 -0.116577
0.12414 1.3743 -0.117967
0.132791 1.39656 -0.119878
0.13943 1.39656 -0.119878
-0.441302 1.38372 -0.125285
-0.431223 1.3726 -0.124278
-0.413118 1.33521 -0.120892
-0.402144 1.32005 -0.11952
-0.39586 1.32005 -0.11952
-0.391068 1.3251 -0.119977
-0.386228 1.33015 -0.120435
-0.379896 1.33015 -0.120435
-0.373565 1.33015 -0.120435
-0.367233 1.33015 -0.120435
-0.362273 1.33521 -0.120892
-0.355917 1.33521 -0.120892
-0.349562 1.33521 -0.120892
-0.341907 1.33015 -0.120435
-0.33685 1.33521 -0.120892
-0.331745 1.34026 -0.12135
-0.326593 1.34531 -0.121808
-0.325241 1.36654 -0.123729
-0.32015 1.3726 -0.124278
-0.314771 1.37766 -0.124736
-0.310701 1.38878 -0.125743
-0.305418 1.39484 -0.126292
-0.299861 1.3999 -0.126749
-0.296797 1.41708 -0.128305
-0.293775 1.43527 -0.129952
-0.288156 1.44134 -0.130502
-0.281295 1.44134 -0.130502
-0.274434 1.44134 -0.130502
-0.269825 1.45347 -0.1316
-0.260712 1.44134 -0.130502
-0.251715 1.42921 -0.129403
-0.241967 1.41202 -0.127848
-0.234236 1.40596 -0.127298
-0.226562 1.3999 -0.126749
-0.219898 1.3999 -0.126749
-0.212465 1.39484 -0.126292
-0.204185 1.38372 -0.125285
-0.196732 1.37766 -0.124736
-0.189477 1.3726 -0.124278
-0.181461 1.36149 -0.123272
-0.174331 1.35643 -0.122814
-0.1685 1.36149 -0.123272
-0.16262 1.36654 -0.123729
-0.156808 1.3726 -0.124278
-0.153262 1.3999 -0.126749
-0.146599 1.3999 -0.126749
-0.139935 1.3999 -0.126749
-0.132791 1.39484 -0.126292
-0.125603 1.38878 -0.125743
-0.119512 1.39484 -0.126292
-0.112872 1.39484 -0.126292
-0.107079 1.40596 -0.127298
-0.0999538 1.3999 -0.126749
-0.0932902 1.3999 -0.126749
-0.0866266 1.3999 -0.126749
-0.079963 1.3999 -0.126749
-0.0732994 1.3999 -0.126749
-0.0666358 1.3999 -0.126749
-0.0597558 1.39484 -0.126292
-0.0531162 1.39484 -0.126292
-0.0464767 1.39484 -0.126292
-0.0398372 1.39484 -0.126292
-0.0331976 1.39484 -0.126292
-0.0264426 1.38878 -0.125743
-0.019832 1.38878 -0.125743
-0.0132213 1.38878 -0.125743
-0.00661066 1.38878 -0.125743
0 1.38878 -0.125743
0.0065866 1.38372 -0.125285
0.0131732 1.38372 -0.125285
0.0197598 1.38372 -0.125285
0.0263464 1.38372 -0.125285
0.0330533 1.38878 -0.125743
0.0395196 1.38372 -0.125285
0.0457358 1.3726 -0.124278
0.123591 1.36654 -0.123729
0.132213 1.38878 -0.125743
0.138824 1.38878 -0.125743
-0.439368 1.37596 -0.13107
-0.429318 1.36486 -0.130013
-0.413118 1.33356 -0.127031
-0.402144 1.31842 -0.125589
-0.394345 1.31337 -0.125108
-0.388085 1.31337 -0.125108
-0.384761 1.32347 -0.12607
-0.378453 1.32347 -0.12607
-0.372146 1.32347 -0.12607
-0.367233 1.32851 -0.126551
-0.360902 1.32851 -0.126551
-0.35457 1.32851 -0.126551
-0.348238 1.32851 -0.126551
-0.341907 1.32851 -0.126551
-0.335575 1.32851 -0.126551
-0.330495 1.33356 -0.127031
-0.326593 1.34366 -0.127993
-0.324038 1.35981 -0.129532
-0.316378 1.35476 -0.129051
-0.307381 1.34366 -0.127993
-0.304596 1.35981 -0.129532
-0.299221 1.36486 -0.130013
-0.294016 1.37091 -0.130589
-0.287482 1.37091 -0.130589
-0.2855 1.39312 -0.132705
-0.281083 1.40423 -0.133763
-0.274391 1.40423 -0.133763
-0.268853 1.41028 -0.13434
-0.25988 1.39817 -0.133186
-0.252302 1.39312 -0.132705
-0.244594 1.38707 -0.132128
-0.237984 1.38707 -0.132128
-0.231373 1.38707 -0.132128
-0.223945 1.38202 -0.131647
-0.219104 1.39312 -0.132705
-0.212465 1.39312 -0.132705
-0.202544 1.37091 -0.130589
-0.194423 1.35981 -0.129532
-0.187244 1.35476 -0.129051
-0.182135 1.36486 -0.130013
-0.17498 1.35981 -0.129532
-0.167874 1.35476 -0.129051
-0.162019 1.35981 -0.129532
-0.153691 1.34366 -0.127993
-0.147287 1.34366 -0.127993
-0.141518 1.34971 -0.12857
-0.136601 1.36486 -0.130013
-0.130674 1.37091 -0.130589
-0.12414 1.37091 -0.130589
-0.117087 1.36486 -0.130013
-0.111482 1.37596 -0.13107
-0.104924 1.37596 -0.13107
-0.0983661 1.37596 -0.13107
-0.0922125 1.38202 -0.131647
-0.0856259 1.38202 -0.131647
-0.0793279 1.38707 -0.132128
-0.0727173 1.38707 -0.132128
-0.0661066 1.38707 -0.132128
-0.0594959 1.38707 -0.132128
-0.0526928 1.38202 -0.131647
-0.0461062 1.38202 -0.131647
-0.0395196 1.38202 -0.131647
-0.032933 1.38202 -0.131647
-0.0262309 1.37596 -0.13107
-0.0196732 1.37596 -0.13107
-0.0131732 1.38202 -0.131647
-0.0065866 1.38202 -0.131647
0 1.38202 -0.131647
0.00661066 1.38707 -0.132128
0.0131732 1.38202 -0.131647
0.0197598 1.38202 -0.131647
0.0262309 1.37596 -0.13107
0.032933 1.38202 -0.131647
0.0393464 1.37596 -0.13107
0.0455337 1.36486 -0.130013
0.103307 1.35476 -0.129051
0.110173 1.35981 -0.129532
0.130096 1.36486 -0.130013
0.138319 1.38202 -0.131647
0.147234 1.40423 -0.133763
-0.42773 1.35813 -0.135792
-0.414682 1.33696 -0.133675
-0.405223 1.32688 -0.132666
-0.397376 1.32183 -0.132162
-0.386594 1.30671 -0.13065
-0.381826 1.31175 -0.131154
-0.378453 1.32183 -0.132162
-0.370726 1.31679 -0.131658
-0.364443 1.31679 -0.131658
-0.358159 1.31679 -0.131658
-0.351876 1.31679 -0.131658
-0.345592 1.31679 -0.131658
-0.339309 1.31679 -0.131658
-0.3343 1.32183 -0.132162
-0.329244 1.32688 -0.132666
-0.325366 1.33696 -0.133675
-0.324038 1.35813 -0.135792
-0.316378 1.35309 -0.135288
-0.307381 1.342 -0.134179
-0.303465 1.35309 -0.135288
-0.298115 1.35813 -0.135792
-0.292717 1.36317 -0.136296
-0.286212 1.36317 -0.136296
-0.280948 1.36922 -0.136901
-0.276637 1.38031 -0.138009
-0.273207 1.39645 -0.139622
-0.263464 1.38031 -0.138009
-0.255752 1.37426 -0.137405
-0.249194 1.37426 -0.137405
-0.242636 1.37426 -0.137405
-0.235213 1.36922 -0.136901
-0.229521 1.37426 -0.137405
-0.222963 1.37426 -0.137405
-0.216405 1.37426 -0.137405
-0.207384 1.35813 -0.135792
-0.200158 1.35309 -0.135288
-0.194423 1.35813 -0.135792
-0.187244 1.35309 -0.135288
-0.178632 1.33696 -0.133675
-0.172252 1.33696 -0.133675
-0.166498 1.342 -0.134179
-0.158892 1.33192 -0.133171
-0.151959 1.32688 -0.132666
-0.14618 1.33192 -0.133171
-0.139295 1.32688 -0.132666
-0.132964 1.32688 -0.132666
-0.126632 1.32688 -0.132666
-0.120758 1.33192 -0.133171
-0.114402 1.33192 -0.133171
-0.108455 1.33696 -0.133675
-0.102922 1.34805 -0.134784
-0.0972114 1.35813 -0.135792
-0.0910674 1.36317 -0.136296
-0.0845626 1.36317 -0.136296
-0.0780578 1.36317 -0.136296
-0.0712883 1.35813 -0.135792
-0.0653368 1.36922 -0.136901
-0.0590196 1.37426 -0.137405
-0.0526928 1.38031 -0.138009
-0.0459042 1.37426 -0.137405
-0.0393464 1.37426 -0.137405
-0.0327887 1.37426 -0.137405
-0.0262309 1.37426 -0.137405
-0.0196732 1.37426 -0.137405
-0.0131155 1.37426 -0.137405
-0.0065866 1.38031 -0.138009
0 1.38031 -0.138009
0.0065866 1.38031 -0.138009
0.0131732 1.38031 -0.138009
0.0196732 1.37426 -0.137405
0.0262309 1.37426 -0.137405
0.032933 1.38031 -0.138009
0.0393464 1.37426 -0.137405
0.0457358 1.36922 -0.136901
0.103307 1.35309 -0.135288
0.109355 1.34805 -0.134784
0.114835 1.33696 -0.133675
0.122677 1.35309 -0.135288
0.129615 1.35813 -0.135792
0.138319 1.38031 -0.138009
-0.406763 1.33027 -0.13931
-0.398891 1.32524 -0.138782
-0.388085 1.31013 -0.1372
-0.380358 1.3051 -0.136673
-0.378453 1.3202 -0.138255
-0.370726 1.31517 -0.137728
-0.363047 1.31013 -0.1372
-0.356788 1.31013 -0.1372
-0.351876 1.31517 -0.137728
-0.344269 1.31013 -0.1372
-0.339309 1.31517 -0.137728
-0.3343 1.3202 -0.138255
-0.329244 1.32524 -0.138782
-0.325366 1.33531 -0.139837
-0.321632 1.34638 -0.140997
-0.313785 1.34034 -0.140364
-0.306227 1.33531 -0.139837
-0.304596 1.35645 -0.142052
-0.299221 1.36149 -0.142579
-0.292717 1.36149 -0.142579
-0.286212 1.36149 -0.142579
-0.279707 1.36149 -0.142579
-0.274415 1.36753 -0.143212
-0.268867 1.37257 -0.143739
-0.261347 1.36753 -0.143212
-0.254814 1.36753 -0.143212
-0.249194 1.37257 -0.143739
-0.242636 1.37257 -0.143739
-0.237118 1.37861 -0.144372
-0.227668 1.36149 -0.142579
-0.221164 1.36149 -0.142579
-0.215611 1.36753 -0.143212
-0.206614 1.35142 -0.141524
-0.198517 1.34034 -0.140364
-0.192113 1.34034 -0.140364
-0.186547 1.34638 -0.140997
-0.178632 1.33531 -0.139837
-0.172252 1.33531 -0.139837
-0.166498 1.34034 -0.140364
-0.158892 1.33027 -0.13931
-0.151959 1.32524 -0.138782
-0.14618 1.33027 -0.13931
-0.140354 1.33531 -0.139837
-0.133469 1.33027 -0.13931
-0.126632 1.32524 -0.138782
-0.120758 1.33027 -0.13931
-0.114835 1.33531 -0.139837
-0.108455 1.33531 -0.139837
-0.101691 1.33027 -0.13931
-0.0956958 1.33531 -0.139837
-0.0896529 1.34034 -0.140364
-0.0839371 1.35142 -0.141524
-0.0774804 1.35142 -0.141524
-0.0710237 1.35142 -0.141524
-0.0648076 1.35645 -0.142052
-0.0585433 1.36149 -0.142579
-0.0520385 1.36149 -0.142579
-0.0455337 1.36149 -0.142579
-0.0390289 1.36149 -0.142579
-0.0325241 1.36149 -0.142579
-0.0261347 1.36753 -0.143212
-0.019601 1.36753 -0.143212
-0.0130674 1.36753 -0.143212
-0.00655774 1.37257 -0.143739
0 1.37257 -0.143739
0.0065866 1.37861 -0.144372
0.0131732 1.37861 -0.144372
0.0196732 1.37257 -0.143739
0.0262309 1.37257 -0.143739
0.0710237 1.35142 -0.141524
0.0777691 1.35645 -0.142052
0.0845626 1.36149 -0.142579
0.103307 1.35142 -0.141524
0.110173 1.35645 -0.142052
0.116654 1.35645 -0.142052
-0.408302 1.33366 -0.145999
-0.397376 1.31857 -0.144348
-0.385102 1.29845 -0.142146
-0.380358 1.30348 -0.142696
-0.379896 1.3236 -0.144898
-0.370726 1.31354 -0.143797
-0.363047 1.30851 -0.143247
-0.356788 1.30851 -0.143247
-0.349181 1.30348 -0.142696
-0.342946 1.30348 -0.142696
-0.339309 1.31354 -0.143797
-0.333025 1.31354 -0.143797
-0.327993 1.31857 -0.144348
-0.324139 1.32863 -0.145449
-0.321632 1.34472 -0.14721
-0.313785 1.33868 -0.14655
-0.307381 1.33868 -0.14655
-0.304596 1.35478 -0.148311
-0.299221 1.35981 -0.148862
-0.292717 1.35981 -0.148862
-0.284095 1.34975 -0.147761
-0.278673 1.35478 -0.148311
-0.271181 1.34975 -0.147761
-0.263738 1.34472 -0.14721
-0.257306 1.34472 -0.14721
-0.250873 1.34472 -0.14721
-0.245355 1.34975 -0.147761
-0.239788 1.35478 -0.148311
-0.232441 1.34975 -0.147761
-0.226826 1.35478 -0.148311
-0.220346 1.35478 -0.148311
-0.213071 1.34975 -0.147761
-0.202611 1.3236 -0.144898
-0.195534 1.31857 -0.144348
-0.189948 1.3236 -0.144898
-0.184314 1.32863 -0.145449
-0.178632 1.33366 -0.145999
-0.171603 1.32863 -0.145449
-0.164622 1.3236 -0.144898
-0.157689 1.31857 -0.144348
-0.152536 1.32863 -0.145449
-0.147287 1.33868 -0.14655
-0.140883 1.33868 -0.14655
-0.134479 1.33868 -0.14655
-0.126632 1.3236 -0.144898
-0.119843 1.31857 -0.144348
-0.113969 1.3236 -0.144898
-0.108046 1.32863 -0.145449
-0.102076 1.33366 -0.145999
-0.0960566 1.33868 -0.14655
-0.090057 1.34472 -0.14721
-0.0836244 1.34472 -0.14721
-0.0774804 1.34975 -0.147761
-0.0710237 1.34975 -0.147761
-0.0648076 1.35478 -0.148311
-0.0583268 1.35478 -0.148311
-0.0514612 1.34472 -0.14721
-0.0450285 1.34472 -0.14721
-0.0388845 1.35478 -0.148311
-0.0324038 1.35478 -0.148311
-0.025923 1.35478 -0.148311
-0.0195144 1.35981 -0.148862
-0.0130096 1.35981 -0.148862
-0.00653368 1.36584 -0.149523
0 1.35981 -0.148862
0.00653368 1.36584 -0.149523
0.0131155 1.37087 -0.150073
0.0196732 1.37087 -0.150073
0.0325241 1.35981 -0.148862
0.0392021 1.36584 -0.149523
0.0512302 1.33868 -0.14655
0.0578938 1.34472 -0.14721
0.0643264 1.34472 -0.14721
0.0707591 1.34472 -0.14721
0.0784042 1.36584 -0.149523
0.0852506 1.37087 -0.150073
0.0964897 1.34472 -0.14721
0.104924 1.37087 -0.150073
0.111972 1.3769 -0.150734
0.117606 1.36584 -0.149523
0.123591 1.35981 -0.148862
-0.408302 1.332 -0.152162
-0.398891 1.32196 -0.151014
-0.386594 1.30187 -0.148719
-0.378891 1.29685 -0.148145
-0.37268 1.29685 -0.148145
-0.367888 1.30187 -0.148719
-0.364443 1.31191 -0.149867
-0.356788 1.30689 -0.149293
-0.349181 1.30187 -0.148719
-0.344269 1.30689 -0.149293
-0.340608 1.31694 -0.15044
-0.3343 1.31694 -0.15044
-0.327993 1.31694 -0.15044
-0.328065 1.34305 -0.153424
-0.322835 1.34808 -0.153998
-0.313785 1.33703 -0.152735
-0.307381 1.33703 -0.152735
-0.303465 1.34808 -0.153998
-0.298115 1.3531 -0.154571
-0.290552 1.34808 -0.153998
-0.280708 1.332 -0.152162
-0.274328 1.332 -0.152162
-0.267948 1.332 -0.152162
-0.261569 1.332 -0.152162
-0.254227 1.32698 -0.151588
-0.247871 1.32698 -0.151588
-0.242429 1.332 -0.152162
-0.238008 1.34305 -0.153424
-0.232441 1.34808 -0.153998
-0.225985 1.34808 -0.153998
-0.21691 1.332 -0.152162
-0.207355 1.31191 -0.149867
-0.201072 1.31191 -0.149867
-0.194043 1.30689 -0.149293
-0.188505 1.31191 -0.149867
-0.184314 1.32698 -0.151588
-0.178632 1.332 -0.152162
-0.170304 1.31694 -0.15044
-0.16212 1.30187 -0.148719
-0.160094 1.33703 -0.152735
-0.154961 1.34808 -0.153998
-0.147951 1.34305 -0.153424
-0.140883 1.33703 -0.152735
-0.133469 1.32698 -0.151588
-0.126151 1.31694 -0.15044
-0.119843 1.31694 -0.15044
-0.113103 1.31191 -0.149867
-0.106819 1.31191 -0.149867
-0.100921 1.31694 -0.15044
-0.0949741 1.32196 -0.151014
-0.0893161 1.332 -0.152162
-0.0826236 1.32698 -0.151588
-0.0768453 1.33703 -0.152735
-0.0710237 1.34808 -0.153998
-0.0648076 1.3531 -0.154571
-0.0578938 1.34305 -0.153424
-0.0514612 1.34305 -0.153424
-0.0451969 1.34808 -0.153998
-0.0388845 1.3531 -0.154571
-0.0324038 1.3531 -0.154571
-0.025923 1.3531 -0.154571
-0.0193701 1.34808 -0.153998
-0.0128653 1.34305 -0.153424
-0.00640378 1.33703 -0.152735
0 1.332 -0.152162
0.00643264 1.34305 -0.153424
0.0129134 1.34808 -0.153998
0.0193701 1.34808 -0.153998
0.025923 1.3531 -0.154571
0.0317783 1.32698 -0.151588
0.0378453 1.31694 -0.15044
0.0441529 1.31694 -0.15044
0.0506529 1.32196 -0.151014
0.057634 1.33703 -0.152735
0.0640378 1.33703 -0.152735
0.0704415 1.33703 -0.152735
0.0771917 1.34305 -0.153424
0.0832491 1.33703 -0.152735
0.0893161 1.332 -0.152162
0.0949741 1.32196 -0.151014
0.111073 1.36415 -0.155834
0.118559 1.3752 -0.157096
-0.409842 1.33537 -0.158921
-0.39586 1.31029 -0.155936
-0.385102 1.29524 -0.154145
-0.378891 1.29524 -0.154145
-0.374123 1.30025 -0.154742
-0.367888 1.30025 -0.154742
-0.363047 1.30527 -0.155339
-0.35953 1.3153 -0.156533
-0.35457 1.32032 -0.15713
-0.348238 1.32032 -0.15713
-0.341907 1.32032 -0.15713
-0.335575 1.32032 -0.15713
-0.330495 1.32534 -0.157727
-0.328065 1.34139 -0.159637
-0.320189 1.33537 -0.158921
-0.310249 1.32032 -0.15713
-0.302762 1.3153 -0.156533
-0.297586 1.32032 -0.15713
-0.291254 1.32032 -0.15713
-0.284922 1.32032 -0.15713
-0.278591 1.32032 -0.15713
-0.272259 1.32032 -0.15713
-0.264917 1.3153 -0.156533
-0.25861 1.3153 -0.156533
-0.252302 1.3153 -0.156533
-0.245995 1.3153 -0.156533
-0.239687 1.3153 -0.156533
-0.23694 1.33537 -0.158921
-0.232441 1.34641 -0.160234
-0.225143 1.34139 -0.159637
-0.215275 1.32032 -0.15713
-0.205768 1.30025 -0.154742
-0.199532 1.30025 -0.154742
-0.193297 1.30025 -0.154742
-0.187061 1.30025 -0.154742
-0.180826 1.30025 -0.154742
-0.174591 1.30025 -0.154742
-0.167706 1.29524 -0.154145
-0.160869 1.29022 -0.153548
-0.154201 1.28621 -0.15307
-0.148033 1.28621 -0.15307
-0.141865 1.28621 -0.15307
-0.135697 1.28621 -0.15307
-0.129529 1.28621 -0.15307
-0.123361 1.28621 -0.15307
-0.117558 1.29022 -0.153548
-0.111024 1.28621 -0.15307
-0.104447 1.28119 -0.152473
-0.0989963 1.29022 -0.153548
-0.0938916 1.30527 -0.155339
-0.0886425 1.32032 -0.15713
-0.0826236 1.32534 -0.157727
-0.0765566 1.33035 -0.158324
-0.0701769 1.33035 -0.158324
-0.0635566 1.32534 -0.157727
-0.0569845 1.32032 -0.15713
-0.0506529 1.32032 -0.15713
-0.0444896 1.32534 -0.157727
-0.0382783 1.33035 -0.158324
-0.0317783 1.32534 -0.157727
-0.0254227 1.32534 -0.157727
-0.0189948 1.32032 -0.15713
-0.0126632 1.32032 -0.15713
-0.00633161 1.32032 -0.15713
0 1.32032 -0.15713
0.00633161 1.32032 -0.15713
0.0126632 1.32032 -0.15713
0.0189948 1.32032 -0.15713
0.0256151 1.33537 -0.158921
0.0379896 1.32032 -0.15713
0.0443213 1.32032 -0.15713
0.0510378 1.33035 -0.158324
0.0581103 1.34641 -0.160234
0.0643264 1.34139 -0.159637
0.0701769 1.33035 -0.158324
0.0759793 1.32032 -0.15713
0.0819982 1.3153 -0.156533
0.0889793 1.32534 -0.157727
0.095335 1.32534 -0.157727
0.102076 1.33035 -0.158324
0.108864 1.33537 -0.158921
0.118039 1.36747 -0.162742
0.127157 1.39557 -0.166085
0.134908 1.4066 -0.167398
-0.397376 1.31367 -0.162626
-0.383611 1.28862 -0.159524
-0.378891 1.29363 -0.160145
-0.374123 1.29864 -0.160765
-0.369307 1.30365 -0.161385
-0.364443 1.30866 -0.162005
-0.358159 1.30866 -0.162005
-0.351876 1.30866 -0.162005
-0.346915 1.31367 -0.162626
-0.341907 1.31868 -0.163246
-0.335575 1.31868 -0.163246
-0.331745 1.3287 -0.164486
-0.325366 1.3287 -0.164486
-0.317783 1.32369 -0.163866
-0.312606 1.3287 -0.164486
-0.303917 1.31868 -0.163246
-0.297586 1.31868 -0.163246
-0.291254 1.31868 -0.163246
-0.284922 1.31868 -0.163246
-0.278591 1.31868 -0.163246
-0.27019 1.30866 -0.162005
-0.263907 1.30866 -0.162005
-0.25861 1.31367 -0.162626
-0.253264 1.31868 -0.163246
-0.247871 1.32369 -0.163866
-0.241515 1.32369 -0.163866
-0.23516 1.32369 -0.163866
-0.22967 1.3287 -0.164486
-0.222448 1.32369 -0.163866
-0.215275 1.31868 -0.163246
-0.208149 1.31367 -0.162626
-0.201072 1.30866 -0.162005
-0.194043 1.30365 -0.161385
-0.187783 1.30365 -0.161385
-0.181524 1.30365 -0.161385
-0.174591 1.29864 -0.160765
-0.168355 1.29864 -0.160765
-0.16212 1.29864 -0.160765
-0.155283 1.29363 -0.160145
-0.148494 1.28862 -0.159524
-0.142307 1.28862 -0.159524
-0.13612 1.28862 -0.159524
-0.129933 1.28862 -0.159524
-0.123745 1.28862 -0.159524
-0.118015 1.29363 -0.160145
-0.111804 1.29363 -0.160145
-0.105593 1.29363 -0.160145
-0.0997661 1.29864 -0.160765
-0.0946133 1.31367 -0.162626
-0.0889793 1.32369 -0.163866
-0.0826236 1.32369 -0.163866
-0.0765566 1.3287 -0.164486
-0.0704415 1.33371 -0.165107
-0.0640378 1.33371 -0.165107
-0.057634 1.33371 -0.165107
-0.0506529 1.31868 -0.163246
-0.0444896 1.32369 -0.163866
-0.0382783 1.3287 -0.164486
-0.0318986 1.3287 -0.164486
-0.0254227 1.32369 -0.163866
-0.0189948 1.31868 -0.163246
-0.0127113 1.32369 -0.163866
-0.00637972 1.3287 -0.164486
0 1.33371 -0.165107
0.00643264 1.33972 -0.165851
0.0128076 1.33371 -0.165107
0.0194423 1.34975 -0.167091
0.0260193 1.35476 -0.167712
0.0321632 1.33972 -0.165851
0.0382783 1.3287 -0.164486
0.0443213 1.31868 -0.163246
0.0512302 1.33371 -0.165107
0.057634 1.33371 -0.165107
0.0640378 1.33371 -0.165107
0.0701769 1.3287 -0.164486
0.0759793 1.31868 -0.163246
0.0823109 1.31868 -0.163246
0.0889793 1.32369 -0.163866
0.0946133 1.31367 -0.162626
0.101691 1.32369 -0.163866
0.108046 1.32369 -0.163866
0.118559 1.37179 -0.16982
0.125145 1.37179 -0.16982
-0.381826 1.30203 -0.167431
-0.374123 1.29703 -0.166788
-0.369307 1.30203 -0.167431
-0.364443 1.30704 -0.168075
-0.360902 1.31704 -0.169362
-0.351876 1.30704 -0.168075
-0.345592 1.30704 -0.168075
-0.343206 1.32205 -0.170005
-0.33685 1.32205 -0.170005
-0.330495 1.32205 -0.170005
-0.325366 1.32705 -0.170649
-0.318986 1.32705 -0.170649
-0.313785 1.33205 -0.171292
-0.306227 1.32705 -0.170649
-0.297586 1.31704 -0.169362
-0.291254 1.31704 -0.169362
-0.287087 1.32705 -0.170649
-0.280708 1.32705 -0.170649
-0.273294 1.32205 -0.170005
-0.266938 1.32205 -0.170005
-0.261569 1.32705 -0.170649
-0.253264 1.31704 -0.169362
-0.246933 1.31704 -0.169362
-0.240601 1.31704 -0.169362
-0.234269 1.31704 -0.169362
-0.227938 1.31704 -0.169362
-0.220764 1.31204 -0.168718
-0.213639 1.30704 -0.168075
-0.207355 1.30704 -0.168075
-0.201072 1.30704 -0.168075
-0.194043 1.30203 -0.167431
-0.187783 1.30203 -0.167431
-0.181524 1.30203 -0.167431
-0.175264 1.30203 -0.167431
-0.168355 1.29703 -0.166788
-0.162745 1.30203 -0.167431
-0.155885 1.29703 -0.166788
-0.149072 1.29202 -0.166144
-0.142861 1.29202 -0.166144
-0.136649 1.29202 -0.166144
-0.130438 1.29202 -0.166144
-0.124227 1.29202 -0.166144
-0.118472 1.29703 -0.166788
-0.112237 1.29703 -0.166788
-0.10641 1.30203 -0.167431
-0.100151 1.30203 -0.167431
-0.0938916 1.30203 -0.167431
-0.0872954 1.29703 -0.166788
-0.08106 1.29703 -0.166788
-0.0754019 1.30704 -0.168075
-0.0693831 1.31204 -0.168718
-0.0633161 1.31704 -0.169362
-0.056768 1.31204 -0.168718
-0.050268 1.30704 -0.168075
-0.0439845 1.30704 -0.168075
-0.0378453 1.31204 -0.168718
-0.031658 1.31704 -0.169362
-0.0253264 1.31704 -0.169362
-0.0189227 1.31204 -0.168718
-0.0126151 1.31204 -0.168718
-0.00633161 1.31704 -0.169362
0 1.31704 -0.169362
0.00635566 1.32205 -0.170005
0.0127113 1.32205 -0.170005
0.0189948 1.31704 -0.169362
0.0254227 1.32205 -0.170005
0.0318986 1.32705 -0.170649
0.0382783 1.32705 -0.170649
0.044658 1.32705 -0.170649
0.0512302 1.33205 -0.171292
0.0578938 1.33806 -0.172064
0.0640378 1.33205 -0.171292
0.0701769 1.32705 -0.170649
0.0759793 1.31704 -0.169362
0.0819982 1.31204 -0.168718
0.0889793 1.32205 -0.170005
0.0960566 1.33205 -0.171292
0.103692 1.34807 -0.173351
0.109355 1.33806 -0.172064
-0.37701 1.30541 -0.174144
-0.372146 1.31041 -0.174811
-0.365838 1.31041 -0.174811
-0.358159 1.30541 -0.174144
-0.350529 1.30041 -0.173477
-0.345592 1.30541 -0.174144
-0.339309 1.30541 -0.174144
-0.3343 1.31041 -0.174811
-0.326742 1.30541 -0.174144
-0.320458 1.30541 -0.174144
-0.315378 1.31041 -0.174811
-0.30907 1.31041 -0.174811
-0.303917 1.3154 -0.175478
-0.300977 1.3304 -0.177478
-0.294574 1.3304 -0.177478
-0.287087 1.3254 -0.176811
-0.278591 1.3154 -0.175478
-0.271225 1.31041 -0.174811
-0.266938 1.3204 -0.176144
-0.261569 1.3254 -0.176811
-0.254227 1.3204 -0.176144
-0.247871 1.3204 -0.176144
-0.240601 1.3154 -0.175478
-0.234269 1.3154 -0.175478
-0.227938 1.3154 -0.175478
-0.221606 1.3154 -0.175478
-0.213639 1.30541 -0.174144
-0.207355 1.30541 -0.174144
-0.201072 1.30541 -0.174144
-0.194788 1.30541 -0.174144
-0.188505 1.30541 -0.174144
-0.181524 1.30041 -0.173477
-0.175264 1.30041 -0.173477
-0.169005 1.30041 -0.173477
-0.162745 1.30041 -0.173477
-0.155885 1.29541 -0.172811
-0.149649 1.29541 -0.172811
-0.143414 1.29541 -0.172811
-0.137178 1.29541 -0.172811
-0.130943 1.29541 -0.172811
-0.124708 1.29541 -0.172811
-0.118929 1.30041 -0.173477
-0.11267 1.30041 -0.173477
-0.10641 1.30041 -0.173477
-0.100536 1.30541 -0.174144
-0.0938916 1.30041 -0.173477
-0.0876321 1.30041 -0.173477
-0.08106 1.29541 -0.172811
-0.0748246 1.29541 -0.172811
-0.0685892 1.29541 -0.172811
-0.0623538 1.29541 -0.172811
