ply
format ascii 1.0
comment Created by Open3D
element vertex 1698
property double x
property double y
property double z
end_header
-0.208539 1.63212 0.110125
-0.200182 1.62474 0.109627
-0.192768 1.62474 0.109627
-0.185353 1.62474 0.109627
-0.178748 1.63212 0.110125
-0.170525 1.62474 0.109627
-0.163111 1.62474 0.109627
-0.155697 1.62474 0.109627
-0.148283 1.62474 0.109627
-0.141509 1.63212 0.110125
-0.134061 1.63212 0.110125
-0.127185 1.6395 0.110623
-0.119704 1.6395 0.110623
-0.112222 1.6395 0.110623
-0.105212 1.64688 0.111121
-0.0981977 1.65531 0.11169
-0.090644 1.65531 0.11169
-0.0830903 1.65531 0.11169
-0.074815 1.6395 0.110623
-0.0661643 1.61103 0.108702
-0.0590437 1.61735 0.109129
-0.0528757 1.65531 0.11169
-0.0457261 1.67007 0.112686
-0.0381051 1.67007 0.112686
-0.0303494 1.66269 0.112188
-0.381051 1.6681 0.105325
-0.37508 1.67547 0.10579
-0.365809 1.6681 0.105325
-0.31736 1.61544 0.102
-0.311394 1.62282 0.102465
-0.297913 1.63019 0.102931
-0.290465 1.63019 0.102931
-0.284297 1.63756 0.103396
-0.269334 1.63756 0.103396
-0.254371 1.63756 0.103396
-0.245778 1.63019 0.102931
-0.239408 1.63756 0.103396
-0.231926 1.63756 0.103396
-0.224445 1.63756 0.103396
-0.215987 1.63019 0.102931
-0.207596 1.62282 0.102465
-0.200182 1.62282 0.102465
-0.192768 1.62282 0.102465
-0.185353 1.62282 0.102465
-0.177939 1.62282 0.102465
-0.170525 1.62282 0.102465
-0.163111 1.62282 0.102465
-0.15499 1.61544 0.102
-0.147609 1.61544 0.102
-0.140869 1.62282 0.102465
-0.134061 1.63019 0.102931
-0.127185 1.63756 0.103396
-0.119704 1.63756 0.103396
-0.112222 1.63756 0.103396
-0.105212 1.64493 0.103862
-0.0976973 1.64493 0.103862
-0.090644 1.65336 0.104394
-0.0830903 1.65336 0.104394
-0.0755367 1.65336 0.104394
-0.0670304 1.63019 0.102931
-0.0595825 1.63019 0.102931
-0.0531114 1.66073 0.104859
-0.375759 1.64299 0.0966027
-0.37178 1.65876 0.0975304
-0.32347 1.60722 0.0945
-0.31736 1.61353 0.0948711
-0.309979 1.61353 0.0948711
-0.30398 1.6209 0.095304
-0.297913 1.62826 0.0957369
-0.291778 1.63562 0.0961698
-0.284297 1.63562 0.0961698
-0.276815 1.63562 0.0961698
-0.269334 1.63562 0.0961698
-0.263031 1.64299 0.0966027
-0.254371 1.63562 0.0961698
-0.246889 1.63562 0.0961698
-0.23833 1.62826 0.0957369
-0.230882 1.62826 0.0957369
-0.223435 1.62826 0.0957369
-0.21501 1.6209 0.095304
-0.207596 1.6209 0.095304
-0.199272 1.61353 0.0948711
-0.191141 1.60722 0.0945
-0.184512 1.61353 0.0948711
-0.176438 1.60722 0.0945
-0.169087 1.60722 0.0945
-0.161735 1.60722 0.0945
-0.154383 1.60722 0.0945
-0.147032 1.60722 0.0945
-0.140229 1.61353 0.0948711
-0.133455 1.6209 0.095304
-0.126613 1.62826 0.0957369
-0.119704 1.63562 0.0961698
-0.112222 1.63562 0.0961698
-0.104741 1.63562 0.0961698
-0.0976973 1.64299 0.0966027
-0.090644 1.6514 0.0970975
-0.0830903 1.6514 0.0970975
-0.0755367 1.6514 0.0970975
-0.067983 1.6514 0.0970975
-0.0604293 1.6514 0.0970975
-0.335152 1.62633 0.0885429
-0.32347 1.60532 0.0873989
-0.316119 1.60532 0.0873989
-0.309979 1.61162 0.0877421
-0.30398 1.61898 0.0881425
-0.296566 1.61898 0.0881425
-0.289151 1.61898 0.0881425
-0.283017 1.62633 0.0885429
-0.275569 1.62633 0.0885429
-0.268121 1.62633 0.0885429
-0.260674 1.62633 0.0885429
-0.253226 1.62633 0.0885429
-0.245778 1.62633 0.0885429
-0.23833 1.62633 0.0885429
-0.230882 1.62633 0.0885429
-0.223435 1.62633 0.0885429
-0.215987 1.62633 0.0885429
-0.207596 1.61898 0.0881425
-0.200182 1.61898 0.0881425
-0.191892 1.61162 0.0877421
-0.184512 1.61162 0.0877421
-0.177131 1.61162 0.0877421
-0.169751 1.61162 0.0877421
-0.161735 1.60532 0.0873989
-0.154383 1.60532 0.0873989
-0.147609 1.61162 0.0877421
-0.140869 1.61898 0.0881425
-0.133455 1.61898 0.0881425
-0.126613 1.62633 0.0885429
-0.119704 1.63369 0.0889432
-0.112222 1.63369 0.0889432
-0.104741 1.63369 0.0889432
-0.0976973 1.64104 0.0893436
-0.0901821 1.64104 0.0893436
-0.0830903 1.64945 0.0898012
-0.0751518 1.64104 0.0893436
-0.067983 1.64945 0.0898012
-0.0604293 1.64945 0.0898012
-0.32347 1.60342 0.0802978
-0.316119 1.60342 0.0802978
-0.309979 1.60971 0.0806131
-0.302599 1.60971 0.0806131
-0.296566 1.61706 0.080981
-0.289151 1.61706 0.080981
-0.281737 1.61706 0.080981
-0.275569 1.6244 0.0813488
-0.268121 1.6244 0.0813488
-0.260674 1.6244 0.0813488
-0.253226 1.6244 0.0813488
-0.245778 1.6244 0.0813488
-0.23833 1.6244 0.0813488
-0.231926 1.63175 0.0817167
-0.223435 1.6244 0.0813488
-0.215987 1.6244 0.0813488
-0.208539 1.6244 0.0813488
-0.201091 1.6244 0.0813488
-0.192768 1.61706 0.080981
-0.185353 1.61706 0.080981
-0.177939 1.61706 0.080981
-0.170525 1.61706 0.080981
-0.163111 1.61706 0.080981
-0.15499 1.60971 0.0806131
-0.147609 1.60971 0.0806131
-0.140869 1.61706 0.080981
-0.134667 1.63175 0.0817167
-0.127185 1.63175 0.0817167
-0.119704 1.63175 0.0817167
-0.112728 1.6391 0.0820845
-0.104741 1.63175 0.0817167
-0.0976973 1.6391 0.0820845
-0.090644 1.64749 0.0825049
-0.0830903 1.64749 0.0825049
-0.0755367 1.64749 0.0825049
-0.067983 1.64749 0.0825049
-0.0606988 1.65484 0.0828728
-0.32347 1.60151 0.0731967
-0.316119 1.60151 0.0731967
-0.309979 1.6078 0.0734841
-0.302599 1.6078 0.0734841
-0.296566 1.61514 0.0738194
-0.289151 1.61514 0.0738194
-0.281737 1.61514 0.0738194
-0.275569 1.62248 0.0741548
-0.268121 1.62248 0.0741548
-0.260674 1.62248 0.0741548
-0.254371 1.62981 0.0744901
-0.246889 1.62981 0.0744901
-0.23833 1.62248 0.0741548
-0.231926 1.62981 0.0744901
-0.223435 1.62248 0.0741548
-0.215987 1.62248 0.0741548
-0.208539 1.62248 0.0741548
-0.201091 1.62248 0.0741548
-0.194519 1.62981 0.0744901
-0.186195 1.62248 0.0741548
-0.178748 1.62248 0.0741548
-0.1713 1.62248 0.0741548
-0.163111 1.61514 0.0738194
-0.155697 1.61514 0.0738194
-0.148283 1.61514 0.0738194
-0.141509 1.62248 0.0741548
-0.134667 1.62981 0.0744901
-0.127185 1.62981 0.0744901
-0.120243 1.63715 0.0748254
-0.112728 1.63715 0.0748254
-0.105212 1.63715 0.0748254
-0.0976973 1.63715 0.0748254
-0.090644 1.64554 0.0752087
-0.0830903 1.64554 0.0752087
-0.0758734 1.65287 0.075544
-0.0682861 1.65287 0.075544
-0.0609682 1.66021 0.0758793
-0.32474 1.60589 0.0663551
-0.31736 1.60589 0.0663551
-0.311394 1.61322 0.0666579
-0.302599 1.60589 0.0663551
-0.295218 1.60589 0.0663551
-0.289151 1.61322 0.0666579
-0.281737 1.61322 0.0666579
-0.275569 1.62055 0.0669607
-0.268121 1.62055 0.0669607
-0.261852 1.62788 0.0672635
-0.254371 1.62788 0.0672635
-0.246889 1.62788 0.0672635
-0.239408 1.62788 0.0672635
-0.231926 1.62788 0.0672635
-0.224445 1.62788 0.0672635
-0.216963 1.62788 0.0672635
-0.209482 1.62788 0.0672635
-0.20291 1.63521 0.0675663
-0.195395 1.63521 0.0675663
-0.187037 1.62788 0.0672635
-0.180364 1.63521 0.0675663
-0.172849 1.63521 0.0675663
-0.165334 1.63521 0.0675663
-0.157111 1.62788 0.0672635
-0.14963 1.62788 0.0672635
-0.142148 1.62788 0.0672635
-0.135273 1.63521 0.0675663
-0.127758 1.63521 0.0675663
-0.120243 1.63521 0.0675663
-0.113305 1.64358 0.0679124
-0.105751 1.64358 0.0679124
-0.0981977 1.64358 0.0679124
-0.0910481 1.65091 0.0682152
-0.0834608 1.65091 0.0682152
-0.0762102 1.65824 0.068518
-0.0685892 1.65824 0.068518
-0.0612376 1.66556 0.0688208
-0.318808 1.6113 0.0594964
-0.311394 1.6113 0.0594964
-0.30398 1.6113 0.0594964
-0.296566 1.6113 0.0594964
-0.289151 1.6113 0.0594964
-0.281737 1.6113 0.0594964
-0.275569 1.61862 0.0597667
-0.268121 1.61862 0.0597667
-0.261852 1.62594 0.060037
-0.254371 1.62594 0.060037
-0.248001 1.63326 0.0603072
-0.240486 1.63326 0.0603072
-0.23297 1.63326 0.0603072
-0.224445 1.62594 0.060037
-0.21794 1.63326 0.0603072
-0.210425 1.63326 0.0603072
-0.20291 1.63326 0.0603072
-0.195395 1.63326 0.0603072
-0.187879 1.63326 0.0603072
-0.181288 1.64163 0.0606161
-0.173734 1.64163 0.0606161
-0.166181 1.64163 0.0606161
-0.158627 1.64163 0.0606161
-0.150304 1.63326 0.0603072
-0.14352 1.64163 0.0606161
-0.135273 1.63326 0.0603072
-0.128412 1.64163 0.0606161
-0.120859 1.64163 0.0606161
-0.11381 1.64895 0.0608864
-0.106223 1.64895 0.0608864
-0.0986355 1.64895 0.0608864
-0.0910481 1.64895 0.0608864
-0.0834608 1.64895 0.0608864
-0.0762102 1.65626 0.0611566
-0.0685892 1.65626 0.0611566
-0.0606988 1.64895 0.0608864
-0.329186 1.624 0.0528104
-0.314223 1.624 0.0528104
-0.306741 1.624 0.0528104
-0.29926 1.624 0.0528104
-0.291778 1.624 0.0528104
-0.284297 1.624 0.0528104
-0.276815 1.624 0.0528104
-0.269334 1.624 0.0528104
-0.263031 1.63132 0.0530481
-0.255516 1.63132 0.0530481
-0.249271 1.63967 0.0533198
-0.241717 1.63967 0.0533198
-0.23297 1.63132 0.0530481
-0.225455 1.63132 0.0530481
-0.21794 1.63132 0.0530481
-0.211503 1.63967 0.0533198
-0.203949 1.63967 0.0533198
-0.196395 1.63967 0.0533198
-0.188842 1.63967 0.0533198
-0.181288 1.63967 0.0533198
-0.174509 1.64698 0.0535575
-0.166181 1.63967 0.0533198
-0.159334 1.64698 0.0535575
-0.151073 1.63967 0.0533198
-0.14416 1.64698 0.0535575
-0.136572 1.64698 0.0535575
-0.128985 1.64698 0.0535575
-0.121398 1.64698 0.0535575
-0.114315 1.65429 0.0537953
-0.106223 1.64698 0.0535575
-0.0986355 1.64698 0.0535575
-0.0910481 1.64698 0.0535575
-0.0838313 1.65429 0.0537953
-0.0762102 1.65429 0.0537953
-0.0688923 1.6616 0.054033
-0.0609682 1.65429 0.0537953
-0.0538523 1.66996 0.0543047
-0.314223 1.62207 0.0455838
-0.306741 1.62207 0.0455838
-0.29926 1.62207 0.0455838
-0.291778 1.62207 0.0455838
-0.284297 1.62207 0.0455838
-0.278062 1.62937 0.045789
-0.270546 1.62937 0.045789
-0.264378 1.63772 0.0460235
-0.255516 1.62937 0.045789
-0.249271 1.63772 0.0460235
-0.240486 1.62937 0.045789
-0.23297 1.62937 0.045789
-0.225455 1.62937 0.045789
-0.21794 1.62937 0.045789
-0.210425 1.62937 0.045789
-0.203949 1.63772 0.0460235
-0.196395 1.63772 0.0460235
-0.189684 1.64502 0.0462287
-0.182096 1.64502 0.0462287
-0.174509 1.64502 0.0462287
-0.166922 1.64502 0.0462287
-0.159334 1.64502 0.0462287
-0.151747 1.64502 0.0462287
-0.14416 1.64502 0.0462287
-0.137178 1.65232 0.0464339
-0.128985 1.64502 0.0462287
-0.121398 1.64502 0.0462287
-0.114315 1.65232 0.0464339
-0.106223 1.64502 0.0462287
-0.0986355 1.64502 0.0462287
-0.0910481 1.64502 0.0462287
-0.0838313 1.65232 0.0464339
-0.0762102 1.65232 0.0464339
-0.0688923 1.65962 0.0466391
-0.0609682 1.65232 0.0464339
-0.0535829 1.65962 0.0466391
-0.315637 1.62743 0.0385299
-0.308122 1.62743 0.0385299
-0.300607 1.62743 0.0385299
-0.293092 1.62743 0.0385299
-0.285577 1.62743 0.0385299
-0.279486 1.63576 0.0387272
-0.271932 1.63576 0.0387272
-0.264378 1.63576 0.0387272
-0.256825 1.63576 0.0387272
-0.249271 1.63576 0.0387272
-0.241717 1.63576 0.0387272
-0.23297 1.62743 0.0385299
-0.224445 1.62013 0.0383572
-0.216963 1.62013 0.0383572
-0.209482 1.62013 0.0383572
-0.20291 1.62743 0.0385299
-0.195395 1.62743 0.0385299
-0.188842 1.63576 0.0387272
-0.181288 1.63576 0.0387272
-0.173734 1.63576 0.0387272
-0.166181 1.63576 0.0387272
-0.158627 1.63576 0.0387272
-0.151747 1.64305 0.0388999
-0.14416 1.64305 0.0388999
-0.136572 1.64305 0.0388999
-0.128985 1.64305 0.0388999
-0.121398 1.64305 0.0388999
-0.114315 1.65035 0.0390726
-0.106694 1.65035 0.0390726
-0.0990733 1.65035 0.0390726
-0.0910481 1.64305 0.0388999
-0.0834608 1.64305 0.0388999
-0.0762102 1.65035 0.0390726
-0.0685892 1.65035 0.0390726
-0.0606988 1.64305 0.0388999
-0.0533472 1.65035 0.0390726
-0.315637 1.62548 0.0312708
-0.308122 1.62548 0.0312708
-0.300607 1.62548 0.0312708
-0.293092 1.62548 0.0312708
-0.285577 1.62548 0.0312708
-0.278062 1.62548 0.0312708
-0.271932 1.63381 0.031431
-0.264378 1.63381 0.031431
-0.255516 1.62548 0.0312708
-0.248001 1.62548 0.0312708
-0.240486 1.62548 0.0312708
-0.23297 1.62548 0.0312708
-0.224445 1.6182 0.0311307
-0.216963 1.6182 0.0311307
-0.209482 1.6182 0.0311307
-0.20291 1.62548 0.0312708
-0.195395 1.62548 0.0312708
-0.187879 1.62548 0.0312708
-0.180364 1.62548 0.0312708
-0.173734 1.63381 0.031431
-0.166181 1.63381 0.031431
-0.159334 1.64109 0.0315711
-0.151747 1.64109 0.0315711
-0.14416 1.64109 0.0315711
-0.136572 1.64109 0.0315711
-0.128985 1.64109 0.0315711
-0.121398 1.64109 0.0315711
-0.114315 1.64837 0.0317112
-0.106694 1.64837 0.0317112
-0.0990733 1.64837 0.0317112
-0.0914523 1.64837 0.0317112
-0.0838313 1.64837 0.0317112
-0.0762102 1.64837 0.0317112
-0.0682861 1.64109 0.0315711
-0.0606988 1.64109 0.0315711
-0.0531114 1.64109 0.0315711
-0.330668 1.62354 0.0240117
-0.323153 1.62354 0.0240117
-0.315637 1.62354 0.0240117
-0.308122 1.62354 0.0240117
-0.300607 1.62354 0.0240117
-0.293092 1.62354 0.0240117
-0.285577 1.62354 0.0240117
-0.279486 1.63185 0.0241347
-0.271932 1.63185 0.0241347
-0.264378 1.63185 0.0241347
-0.256825 1.63185 0.0241347
-0.249271 1.63185 0.0241347
-0.240486 1.62354 0.0240117
-0.23297 1.62354 0.0240117
-0.223435 1.60898 0.0237965
-0.215987 1.60898 0.0237965
-0.208539 1.60898 0.0237965
-0.201091 1.60898 0.0237965
-0.194519 1.61626 0.0239041
-0.187037 1.61626 0.0239041
-0.180364 1.62354 0.0240117
-0.172849 1.62354 0.0240117
-0.165334 1.62354 0.0240117
-0.158627 1.63185 0.0241347
-0.151073 1.63185 0.0241347
-0.14416 1.63913 0.0242423
-0.136572 1.63913 0.0242423
-0.128985 1.63913 0.0242423
-0.121398 1.63913 0.0242423
-0.114315 1.6464 0.0243499
-0.106694 1.6464 0.0243499
-0.0990733 1.6464 0.0243499
-0.0914523 1.6464 0.0243499
-0.0838313 1.6464 0.0243499
-0.0762102 1.6464 0.0243499
-0.0685892 1.6464 0.0243499
-0.0606988 1.63913 0.0242423
-0.0531114 1.63913 0.0242423
-0.0459282 1.65368 0.0244575
-0.338183 1.62159 0.0167526
-0.330668 1.62159 0.0167526
-0.323153 1.62159 0.0167526
-0.315637 1.62159 0.0167526
-0.308122 1.62159 0.0167526
-0.300607 1.62159 0.0167526
-0.294593 1.6299 0.0168384
-0.287039 1.6299 0.0168384
-0.279486 1.6299 0.0168384
-0.271932 1.6299 0.0168384
-0.264378 1.6299 0.0168384
-0.256825 1.6299 0.0168384
-0.249271 1.6299 0.0168384
-0.241717 1.6299 0.0168384
-0.23297 1.62159 0.0167526
-0.224445 1.61432 0.0166775
-0.215987 1.60706 0.0166025
-0.207596 1.59979 0.0165274
-0.201091 1.60706 0.0166025
-0.193643 1.60706 0.0166025
-0.186195 1.60706 0.0166025
-0.178748 1.60706 0.0166025
-0.172074 1.61432 0.0166775
-0.165334 1.62159 0.0167526
-0.157819 1.62159 0.0167526
-0.150304 1.62159 0.0167526
-0.14352 1.6299 0.0168384
-0.136572 1.63716 0.0169135
-0.128412 1.6299 0.0168384
-0.120859 1.6299 0.0168384
-0.11381 1.63716 0.0169135
-0.106223 1.63716 0.0169135
-0.0986355 1.63716 0.0169135
-0.0914523 1.64443 0.0169886
-0.0838313 1.64443 0.0169886
-0.0762102 1.64443 0.0169886
-0.0685892 1.64443 0.0169886
-0.0606988 1.63716 0.0169135
-0.0531114 1.63716 0.0169135
-0.0457261 1.64443 0.0169886
-0.0382735 1.6517 0.0170636
-0.344149 1.61239 0.00945095
-0.336667 1.61239 0.00945095
-0.329186 1.61239 0.00945095
-0.323153 1.61965 0.0094935
-0.315637 1.61965 0.0094935
-0.3097 1.62794 0.00954212
-0.302147 1.62794 0.00954212
-0.294593 1.62794 0.00954212
-0.287039 1.62794 0.00954212
-0.279486 1.62794 0.00954212
-0.271932 1.62794 0.00954212
-0.265557 1.6352 0.00958467
-0.25797 1.6352 0.00958467
-0.250382 1.6352 0.00958467
-0.241717 1.62794 0.00954212
-0.23297 1.61965 0.0094935
-0.224445 1.61239 0.00945095
-0.216963 1.61239 0.00945095
-0.208539 1.60513 0.00940841
-0.200182 1.59787 0.00936587
-0.192768 1.59787 0.00936587
-0.186195 1.60513 0.00940841
-0.178748 1.60513 0.00940841
-0.1713 1.60513 0.00940841
-0.163852 1.60513 0.00940841
-0.156404 1.60513 0.00940841
-0.14963 1.61239 0.00945095
-0.142788 1.61965 0.0094935
-0.135966 1.62794 0.00954212
-0.128412 1.62794 0.00954212
-0.120859 1.62794 0.00954212
-0.11381 1.6352 0.00958467
-0.106223 1.6352 0.00958467
-0.0986355 1.6352 0.00958467
-0.0910481 1.6352 0.00958467
-0.0838313 1.64246 0.00962721
-0.0762102 1.64246 0.00962721
-0.0685892 1.64246 0.00962721
-0.0606988 1.6352 0.00958467
-0.0528757 1.62794 0.00954212
-0.0455241 1.6352 0.00958467
-0.0377683 1.62794 0.00954212
-0.339501 1.5887 0.00219434
-0.333636 1.59595 0.00220436
-0.327704 1.6032 0.00221437
-0.321704 1.61045 0.00222438
-0.314223 1.61045 0.00222438
-0.308122 1.6177 0.0022344
-0.300607 1.6177 0.0022344
-0.293092 1.6177 0.0022344
-0.285577 1.6177 0.0022344
-0.279486 1.62599 0.00224584
-0.271932 1.62599 0.00224584
-0.264378 1.62599 0.00224584
-0.256825 1.62599 0.00224584
-0.249271 1.62599 0.00224584
-0.241717 1.62599 0.00224584
-0.23297 1.6177 0.0022344
-0.224445 1.61045 0.00222438
-0.215987 1.6032 0.00221437
-0.208539 1.6032 0.00221437
-0.201091 1.6032 0.00221437
-0.193643 1.6032 0.00221437
-0.186195 1.6032 0.00221437
-0.178748 1.6032 0.00221437
-0.1713 1.6032 0.00221437
-0.163852 1.6032 0.00221437
-0.156404 1.6032 0.00221437
-0.148956 1.6032 0.00221437
-0.142788 1.6177 0.0022344
-0.135273 1.6177 0.0022344
-0.127758 1.6177 0.0022344
-0.120859 1.62599 0.00224584
-0.113305 1.62599 0.00224584
-0.106223 1.63324 0.00225585
-0.0986355 1.63324 0.00225585
-0.0910481 1.63324 0.00225585
-0.0834608 1.63324 0.00225585
-0.0758734 1.63324 0.00225585
-0.0682861 1.63324 0.00225585
-0.0606988 1.63324 0.00225585
-0.0528757 1.62599 0.00224584
-0.0457261 1.64048 0.00226587
-0.0379367 1.63324 0.00225585
-0.345525 1.58058 -0.00491533
-0.338173 1.58058 -0.00491533
-0.332121 1.58679 -0.00493463
-0.326222 1.59403 -0.00495715
-0.320256 1.60127 -0.00497967
-0.312808 1.60127 -0.00497967
-0.306741 1.60851 -0.00500219
-0.29926 1.60851 -0.00500219
-0.291778 1.60851 -0.00500219
-0.284297 1.60851 -0.00500219
-0.276815 1.60851 -0.00500219
-0.269334 1.60851 -0.00500219
-0.263031 1.61576 -0.00502471
-0.255516 1.61576 -0.00502471
-0.248001 1.61576 -0.00502471
-0.240486 1.61576 -0.00502471
-0.231926 1.60851 -0.00500219
-0.224445 1.60851 -0.00500219
-0.216963 1.60851 -0.00500219
-0.208539 1.60127 -0.00497967
-0.201091 1.60127 -0.00497967
-0.194519 1.60851 -0.00500219
-0.187037 1.60851 -0.00500219
-0.179556 1.60851 -0.00500219
-0.172074 1.60851 -0.00500219
-0.164593 1.60851 -0.00500219
-0.157111 1.60851 -0.00500219
-0.150304 1.61576 -0.00502471
-0.14352 1.62403 -0.00505044
-0.136572 1.63127 -0.00507296
-0.128412 1.62403 -0.00505044
-0.121398 1.63127 -0.00507296
-0.11381 1.63127 -0.00507296
-0.106223 1.63127 -0.00507296
-0.0986355 1.63127 -0.00507296
-0.0910481 1.63127 -0.00507296
-0.0834608 1.63127 -0.00507296
-0.0758734 1.63127 -0.00507296
-0.0682861 1.63127 -0.00507296
-0.0606988 1.63127 -0.00507296
-0.0528757 1.62403 -0.00505044
-0.0459282 1.64575 -0.00511799
-0.0381051 1.63851 -0.00509548
-0.312808 1.59935 -0.0121737
-0.305361 1.59935 -0.0121737
-0.297913 1.59935 -0.0121737
-0.289151 1.59211 -0.0121187
-0.283017 1.59935 -0.0121737
-0.275569 1.59935 -0.0121737
-0.268121 1.59935 -0.0121737
-0.261852 1.60658 -0.0122288
-0.255516 1.61381 -0.0122838
-0.248001 1.61381 -0.0122838
-0.239408 1.60658 -0.0122288
-0.231926 1.60658 -0.0122288
-0.224445 1.60658 -0.0122288
-0.216963 1.60658 -0.0122288
-0.209482 1.60658 -0.0122288
-0.202 1.60658 -0.0122288
-0.194519 1.60658 -0.0122288
-0.187037 1.60658 -0.0122288
-0.180364 1.61381 -0.0122838
-0.172849 1.61381 -0.0122838
-0.165334 1.61381 -0.0122838
-0.157819 1.61381 -0.0122838
-0.150304 1.61381 -0.0122838
-0.14352 1.62208 -0.0123467
-0.136572 1.62931 -0.0124018
-0.128985 1.62931 -0.0124018
-0.121398 1.62931 -0.0124018
-0.11381 1.62931 -0.0124018
-0.106223 1.62931 -0.0124018
-0.0986355 1.62931 -0.0124018
-0.0910481 1.62931 -0.0124018
-0.0834608 1.62931 -0.0124018
-0.0758734 1.62931 -0.0124018
-0.0682861 1.62931 -0.0124018
-0.0606988 1.62931 -0.0124018
-0.0531114 1.62931 -0.0124018
-0.0459282 1.64377 -0.0125119
-0.0382735 1.64377 -0.0125119
-0.326222 1.59019 -0.0192802
-0.320256 1.59742 -0.0193678
-0.312808 1.59742 -0.0193678
-0.305361 1.59742 -0.0193678
-0.297913 1.59742 -0.0193678
-0.291778 1.60464 -0.0194553
-0.284297 1.60464 -0.0194553
-0.276815 1.60464 -0.0194553
-0.269334 1.60464 -0.0194553
-0.263031 1.61186 -0.0195429
-0.256825 1.62012 -0.019643
-0.249271 1.62012 -0.019643
-0.240486 1.61186 -0.0195429
-0.23297 1.61186 -0.0195429
-0.225455 1.61186 -0.0195429
-0.21794 1.61186 -0.0195429
-0.210425 1.61186 -0.0195429
-0.20291 1.61186 -0.0195429
-0.195395 1.61186 -0.0195429
-0.187879 1.61186 -0.0195429
-0.180364 1.61186 -0.0195429
-0.172849 1.61186 -0.0195429
-0.165334 1.61186 -0.0195429
-0.157819 1.61186 -0.0195429
-0.150304 1.61186 -0.0195429
-0.14352 1.62012 -0.019643
-0.135966 1.62012 -0.019643
-0.128985 1.62734 -0.0197306
-0.121398 1.62734 -0.0197306
-0.11381 1.62734 -0.0197306
-0.106223 1.62734 -0.0197306
-0.0986355 1.62734 -0.0197306
-0.0910481 1.62734 -0.0197306
-0.0838313 1.63457 -0.0198182
-0.0762102 1.63457 -0.0198182
-0.0685892 1.63457 -0.0198182
-0.0606988 1.62734 -0.0197306
-0.0531114 1.62734 -0.0197306
-0.0461592 1.65005 -0.0200058
-0.038466 1.65005 -0.0200058
-0.0306188 1.64179 -0.0199057
-0.0154537 1.65727 -0.0200934
-0.327704 1.59549 -0.0265618
-0.320256 1.59549 -0.0265618
-0.312808 1.59549 -0.0265618
-0.306741 1.60271 -0.0266819
-0.29926 1.60271 -0.0266819
-0.293092 1.60992 -0.026802
-0.285577 1.60992 -0.026802
-0.278062 1.60992 -0.026802
-0.270546 1.60992 -0.026802
-0.264378 1.61817 -0.0269393
-0.25797 1.62538 -0.0270594
-0.249271 1.61817 -0.0269393
-0.241717 1.61817 -0.0269393
-0.23297 1.60992 -0.026802
-0.225455 1.60992 -0.026802
-0.21794 1.60992 -0.026802
-0.210425 1.60992 -0.026802
-0.20291 1.60992 -0.026802
-0.195395 1.60992 -0.026802
-0.187879 1.60992 -0.026802
-0.180364 1.60992 -0.026802
-0.172849 1.60992 -0.026802
-0.165334 1.60992 -0.026802
-0.157819 1.60992 -0.026802
-0.150304 1.60992 -0.026802
-0.14352 1.61817 -0.0269393
-0.135966 1.61817 -0.0269393
-0.128985 1.62538 -0.0270594
-0.121398 1.62538 -0.0270594
-0.113305 1.61817 -0.0269393
-0.106223 1.62538 -0.0270594
-0.0986355 1.62538 -0.0270594
-0.0910481 1.62538 -0.0270594
-0.0838313 1.63259 -0.0271795
-0.0762102 1.63259 -0.0271795
-0.0685892 1.63259 -0.0271795
-0.0606988 1.62538 -0.0270594
-0.0533472 1.63259 -0.0271795
-0.0463612 1.65527 -0.027557
-0.0388268 1.66352 -0.0276943
-0.0310614 1.66352 -0.0276943
-0.345698 1.60797 -0.0340611
-0.336667 1.60077 -0.0339085
-0.329186 1.60077 -0.0339085
-0.321704 1.60077 -0.0339085
-0.314223 1.60077 -0.0339085
-0.308122 1.60797 -0.0340611
-0.300607 1.60797 -0.0340611
-0.293092 1.60797 -0.0340611
-0.285577 1.60797 -0.0340611
-0.279486 1.61621 -0.0342356
-0.270546 1.60797 -0.0340611
-0.264378 1.61621 -0.0342356
-0.256825 1.61621 -0.0342356
-0.248001 1.60797 -0.0340611
-0.240486 1.60797 -0.0340611
-0.23297 1.60797 -0.0340611
-0.225455 1.60797 -0.0340611
-0.21794 1.60797 -0.0340611
-0.210425 1.60797 -0.0340611
-0.20291 1.60797 -0.0340611
-0.195395 1.60797 -0.0340611
-0.187879 1.60797 -0.0340611
-0.180364 1.60797 -0.0340611
-0.172074 1.60077 -0.0339085
-0.165334 1.60797 -0.0340611
-0.157819 1.60797 -0.0340611
-0.150304 1.60797 -0.0340611
-0.14352 1.61621 -0.0342356
-0.136572 1.62342 -0.0343882
-0.128985 1.62342 -0.0343882
-0.121398 1.62342 -0.0343882
-0.11381 1.62342 -0.0343882
-0.106223 1.62342 -0.0343882
-0.0986355 1.62342 -0.0343882
-0.0910481 1.62342 -0.0343882
-0.0834608 1.62342 -0.0343882
-0.0762102 1.63062 -0.0345409
-0.0685892 1.63062 -0.0345409
-0.0609682 1.63062 -0.0345409
-0.0535829 1.63783 -0.0346935
-0.0465922 1.66151 -0.035195
-0.0388268 1.66151 -0.035195
-0.0312154 1.66974 -0.0353695
-0.336667 1.59883 -0.041135
-0.329186 1.59883 -0.041135
-0.321704 1.59883 -0.041135
-0.314223 1.59883 -0.041135
-0.306741 1.59883 -0.041135
-0.300607 1.60603 -0.0413202
-0.293092 1.60603 -0.0413202
-0.285577 1.60603 -0.0413202
-0.278062 1.60603 -0.0413202
-0.270546 1.60603 -0.0413202
-0.263031 1.60603 -0.0413202
-0.255516 1.60603 -0.0413202
-0.248001 1.60603 -0.0413202
-0.239408 1.59883 -0.041135
-0.231926 1.59883 -0.041135
-0.224445 1.59883 -0.041135
-0.21794 1.60603 -0.0413202
-0.210425 1.60603 -0.0413202
-0.20291 1.60603 -0.0413202
-0.195395 1.60603 -0.0413202
-0.187879 1.60603 -0.0413202
-0.179556 1.59883 -0.041135
-0.172849 1.60603 -0.0413202
-0.165334 1.60603 -0.0413202
-0.157819 1.60603 -0.0413202
-0.150304 1.60603 -0.0413202
-0.14352 1.61426 -0.0415318
-0.135966 1.61426 -0.0415318
-0.128985 1.62145 -0.041717
-0.121398 1.62145 -0.041717
-0.11381 1.62145 -0.041717
-0.106223 1.62145 -0.041717
-0.0986355 1.62145 -0.041717
-0.0914523 1.62865 -0.0419022
-0.0838313 1.62865 -0.0419022
-0.0762102 1.62865 -0.0419022
-0.0688923 1.63585 -0.0420874
-0.0612376 1.63585 -0.0420874
-0.0538523 1.64407 -0.042299
-0.0463612 1.65127 -0.0424842
-0.0390193 1.66772 -0.0429074
-0.0313501 1.67492 -0.0430926
-0.0237435 1.69137 -0.0435159
-0.336667 1.5969 -0.0483616
-0.327704 1.58971 -0.0481439
-0.320256 1.58971 -0.0481439
-0.314223 1.5969 -0.0483616
-0.306741 1.5969 -0.0483616
-0.300607 1.60408 -0.0485793
-0.293092 1.60408 -0.0485793
-0.285577 1.60408 -0.0485793
-0.278062 1.60408 -0.0485793
-0.270546 1.60408 -0.0485793
-0.263031 1.60408 -0.0485793
-0.255516 1.60408 -0.0485793
-0.248001 1.60408 -0.0485793
-0.239408 1.5969 -0.0483616
-0.230882 1.58971 -0.0481439
-0.224445 1.5969 -0.0483616
-0.21794 1.60408 -0.0485793
-0.210425 1.60408 -0.0485793
-0.202 1.5969 -0.0483616
-0.194519 1.5969 -0.0483616
-0.187037 1.5969 -0.0483616
-0.179556 1.5969 -0.0483616
-0.172074 1.5969 -0.0483616
-0.164593 1.5969 -0.0483616
-0.157111 1.5969 -0.0483616
-0.150304 1.60408 -0.0485793
-0.142788 1.60408 -0.0485793
-0.135966 1.6123 -0.0488281
-0.128412 1.6123 -0.0488281
-0.121398 1.61949 -0.0490458
-0.11381 1.61949 -0.0490458
-0.106223 1.61949 -0.0490458
-0.0986355 1.61949 -0.0490458
-0.0910481 1.61949 -0.0490458
-0.0834608 1.61949 -0.0490458
-0.0762102 1.62668 -0.0492635
-0.0685892 1.62668 -0.0492635
-0.0612376 1.63387 -0.0494812
-0.0538523 1.64208 -0.04973
-0.0461592 1.64208 -0.04973
-0.0386344 1.64927 -0.0499478
-0.0312154 1.6657 -0.0504454
-0.0237435 1.68932 -0.0511607
-0.0156751 1.67289 -0.0506631
-0.336667 1.59496 -0.0555882
-0.329186 1.59496 -0.0555882
-0.321704 1.59496 -0.0555882
-0.314223 1.59496 -0.0555882
-0.308122 1.60214 -0.0558384
-0.300607 1.60214 -0.0558384
-0.293092 1.60214 -0.0558384
-0.287039 1.61035 -0.0561244
-0.279486 1.61035 -0.0561244
-0.270546 1.60214 -0.0558384
-0.263031 1.60214 -0.0558384
-0.255516 1.60214 -0.0558384
-0.248001 1.60214 -0.0558384
-0.239408 1.59496 -0.0555882
-0.230882 1.58778 -0.055338
-0.223435 1.58778 -0.055338
-0.215987 1.58778 -0.055338
-0.209482 1.59496 -0.0555882
-0.202 1.59496 -0.0555882
-0.194519 1.59496 -0.0555882
-0.187037 1.59496 -0.0555882
-0.178748 1.58778 -0.055338
-0.1713 1.58778 -0.055338
-0.163852 1.58778 -0.055338
-0.156404 1.58778 -0.055338
-0.148956 1.58778 -0.055338
-0.142148 1.59496 -0.0555882
-0.134667 1.59496 -0.0555882
-0.127758 1.60214 -0.0558384
-0.120859 1.61035 -0.0561244
-0.113305 1.61035 -0.0561244
-0.105751 1.61035 -0.0561244
-0.0981977 1.61035 -0.0561244
-0.0910481 1.61753 -0.0563746
-0.0830903 1.61035 -0.0561244
-0.0755367 1.61035 -0.0561244
-0.0682861 1.61753 -0.0563746
-0.0609682 1.6247 -0.0566249
-0.0533472 1.6247 -0.0566249
-0.0457261 1.6247 -0.0566249
-0.0382735 1.63188 -0.0568751
-0.0309075 1.64727 -0.0574113
-0.0235126 1.67086 -0.0582335
-0.0156077 1.66368 -0.0579833
-0.00780385 1.66368 -0.0579833
-0.347469 1.60839 -0.0634207
-0.338183 1.60019 -0.0630975
-0.329186 1.59302 -0.0628148
-0.321704 1.59302 -0.0628148
-0.314223 1.59302 -0.0628148
-0.308122 1.60019 -0.0630975
-0.300607 1.60019 -0.0630975
-0.293092 1.60019 -0.0630975
-0.287039 1.60839 -0.0634207
-0.279486 1.60839 -0.0634207
-0.270546 1.60019 -0.0630975
-0.264378 1.60839 -0.0634207
-0.255516 1.60019 -0.0630975
-0.248001 1.60019 -0.0630975
-0.23833 1.58585 -0.062532
-0.230882 1.58585 -0.062532
-0.223435 1.58585 -0.062532
-0.215987 1.58585 -0.062532
-0.208539 1.58585 -0.062532
-0.202 1.59302 -0.0628148
-0.194519 1.59302 -0.0628148
-0.187037 1.59302 -0.0628148
-0.178748 1.58585 -0.062532
-0.1713 1.58585 -0.062532
-0.163111 1.57868 -0.0622492
-0.155697 1.57868 -0.0622492
-0.148956 1.58585 -0.062532
-0.141509 1.58585 -0.062532
-0.134667 1.59302 -0.0628148
-0.127758 1.60019 -0.0630975
-0.120243 1.60019 -0.0630975
-0.113305 1.60839 -0.0634207
-0.105751 1.60839 -0.0634207
-0.0981977 1.60839 -0.0634207
-0.090644 1.60839 -0.0634207
-0.0830903 1.60839 -0.0634207
-0.0755367 1.60839 -0.0634207
-0.067983 1.60839 -0.0634207
-0.0604293 1.60839 -0.0634207
-0.0528757 1.60839 -0.0634207
-0.045322 1.60839 -0.0634207
-0.0379367 1.61556 -0.0637035
-0.0306188 1.6299 -0.064269
-0.0154537 1.64527 -0.0648749
-0.347469 1.60644 -0.070717
-0.338183 1.59825 -0.0703566
-0.329186 1.59109 -0.0700413
-0.321704 1.59109 -0.0700413
-0.312808 1.58392 -0.069726
-0.305361 1.58392 -0.069726
-0.29926 1.59109 -0.0700413
-0.291778 1.59109 -0.0700413
-0.285577 1.59825 -0.0703566
-0.278062 1.59825 -0.0703566
-0.269334 1.59109 -0.0700413
-0.261852 1.59109 -0.0700413
-0.254371 1.59109 -0.0700413
-0.246889 1.59109 -0.0700413
-0.23833 1.58392 -0.069726
-0.229838 1.57676 -0.0694107
-0.222424 1.57676 -0.0694107
-0.21501 1.57676 -0.0694107
-0.207596 1.57676 -0.0694107
-0.200182 1.57676 -0.0694107
-0.193643 1.58392 -0.069726
-0.186195 1.58392 -0.069726
-0.177939 1.57676 -0.0694107
-0.170525 1.57676 -0.0694107
-0.163111 1.57676 -0.0694107
-0.155697 1.57676 -0.0694107
-0.148283 1.57676 -0.0694107
-0.140869 1.57676 -0.0694107
-0.134667 1.59109 -0.0700413
-0.127185 1.59109 -0.0700413
-0.120243 1.59825 -0.0703566
-0.112728 1.59825 -0.0703566
-0.105212 1.59825 -0.0703566
-0.0981977 1.60644 -0.070717
-0.090644 1.60644 -0.070717
-0.0830903 1.60644 -0.070717
-0.0755367 1.60644 -0.070717
-0.0676366 1.59825 -0.0703566
-0.059852 1.59109 -0.0700413
-0.0523705 1.59109 -0.0700413
-0.044889 1.59109 -0.0700413
-0.0374075 1.59109 -0.0700413
-0.358188 1.61879 -0.0787089
-0.345698 1.5963 -0.0776157
-0.338183 1.5963 -0.0776157
-0.329186 1.58915 -0.0772679
-0.320256 1.582 -0.0769201
-0.311394 1.57484 -0.0765722
-0.305361 1.582 -0.0769201
-0.297913 1.582 -0.0769201
-0.290465 1.582 -0.0769201
-0.284297 1.58915 -0.0772679
-0.276815 1.58915 -0.0772679
-0.268121 1.582 -0.0769201
-0.260674 1.582 -0.0769201
-0.253226 1.582 -0.0769201
-0.245778 1.582 -0.0769201
-0.237252 1.57484 -0.0765722
-0.229838 1.57484 -0.0765722
-0.222424 1.57484 -0.0765722
-0.21501 1.57484 -0.0765722
-0.207596 1.57484 -0.0765722
-0.200182 1.57484 -0.0765722
-0.193643 1.582 -0.0769201
-0.186195 1.582 -0.0769201
-0.178748 1.582 -0.0769201
-0.1713 1.582 -0.0769201
-0.163111 1.57484 -0.0765722
-0.155697 1.57484 -0.0765722
-0.148283 1.57484 -0.0765722
-0.141509 1.582 -0.0769201
-0.134667 1.58915 -0.0772679
-0.127185 1.58915 -0.0772679
-0.120243 1.5963 -0.0776157
-0.112728 1.5963 -0.0776157
-0.105751 1.60448 -0.0780133
-0.0981977 1.60448 -0.0780133
-0.090644 1.60448 -0.0780133
-0.0826669 1.5963 -0.0776157
-0.074815 1.58915 -0.0772679
-0.0676366 1.5963 -0.0776157
-0.059852 1.58915 -0.0772679
-0.0521347 1.582 -0.0769201
-0.044889 1.58915 -0.0772679
-0.358188 1.61682 -0.0860703
-0.347469 1.60253 -0.0853095
-0.338183 1.59436 -0.0848748
-0.330668 1.59436 -0.0848748
-0.321704 1.58721 -0.0844945
-0.311394 1.57292 -0.0837338
-0.305361 1.58007 -0.0841141
-0.297913 1.58007 -0.0841141
-0.290465 1.58007 -0.0841141
-0.283017 1.58007 -0.0841141
-0.275569 1.58007 -0.0841141
-0.268121 1.58007 -0.0841141
-0.261852 1.58721 -0.0844945
-0.253226 1.58007 -0.0841141
-0.244667 1.57292 -0.0837338
-0.237252 1.57292 -0.0837338
-0.228794 1.56578 -0.0833534
-0.221414 1.56578 -0.0833534
-0.214033 1.56578 -0.0833534
-0.206653 1.56578 -0.0833534
-0.200182 1.57292 -0.0837338
-0.193643 1.58007 -0.0841141
-0.187037 1.58721 -0.0844945
-0.178748 1.58007 -0.0841141
-0.1713 1.58007 -0.0841141
-0.163111 1.57292 -0.0837338
-0.155697 1.57292 -0.0837338
-0.148956 1.58007 -0.0841141
-0.141509 1.58007 -0.0841141
-0.134667 1.58721 -0.0844945
-0.127758 1.59436 -0.0848748
-0.120859 1.60253 -0.0853095
-0.113305 1.60253 -0.0853095
-0.105751 1.60253 -0.0853095
-0.0976973 1.59436 -0.0848748
-0.0901821 1.59436 -0.0848748
-0.0826669 1.59436 -0.0848748
-0.0751518 1.59436 -0.0848748
-0.0673335 1.58721 -0.0844945
-0.059852 1.58721 -0.0844945
-0.0523705 1.58721 -0.0844945
-0.367426 1.62198 -0.0938445
-0.356605 1.60771 -0.0930187
-0.347469 1.60057 -0.0926058
-0.339915 1.60057 -0.0926058
-0.330668 1.59241 -0.0921339
-0.320256 1.57814 -0.0913082
-0.311394 1.57101 -0.0908953
-0.30398 1.57101 -0.0908953
-0.296566 1.57101 -0.0908953
-0.289151 1.57101 -0.0908953
-0.283017 1.57814 -0.0913082
-0.275569 1.57814 -0.0913082
-0.268121 1.57814 -0.0913082
-0.260674 1.57814 -0.0913082
-0.253226 1.57814 -0.0913082
-0.244667 1.57101 -0.0908953
-0.237252 1.57101 -0.0908953
-0.228794 1.56387 -0.0904824
-0.221414 1.56387 -0.0904824
-0.214033 1.56387 -0.0904824
-0.207596 1.57101 -0.0908953
-0.201091 1.57814 -0.0913082
-0.194519 1.58528 -0.091721
-0.188842 1.60057 -0.0926058
-0.180364 1.59241 -0.0921339
-0.172074 1.58528 -0.091721
-0.164593 1.58528 -0.091721
-0.157111 1.58528 -0.091721
-0.150304 1.59241 -0.0921339
-0.14352 1.60057 -0.0926058
-0.135966 1.60057 -0.0926058
-0.128412 1.60057 -0.0926058
-0.121398 1.60771 -0.0930187
-0.114315 1.61484 -0.0934316
-0.106223 1.60771 -0.0930187
-0.0986355 1.60771 -0.0930187
-0.090644 1.60057 -0.0926058
-0.0826669 1.59241 -0.0921339
-0.0751518 1.59241 -0.0921339
-0.067983 1.60057 -0.0926058
-0.376966 1.62814 -0.101747
-0.369273 1.62814 -0.101747
-0.358188 1.61287 -0.100793
-0.350567 1.61287 -0.100793
-0.341431 1.60574 -0.100348
-0.332361 1.59861 -0.0999021
-0.321704 1.58334 -0.0989476
-0.311394 1.56909 -0.0980568
-0.30398 1.56909 -0.0980568
-0.296566 1.56909 -0.0980568
-0.287838 1.56196 -0.0976113
-0.283017 1.57621 -0.0985022
-0.274323 1.56909 -0.0980568
-0.269334 1.58334 -0.0989476
-0.260674 1.57621 -0.0985022
-0.253226 1.57621 -0.0985022
-0.244667 1.56909 -0.0980568
-0.235251 1.55585 -0.0972296
-0.228794 1.56196 -0.0976113
-0.222424 1.56909 -0.0980568
-0.213196 1.55585 -0.0972296
-0.205845 1.55585 -0.0972296
-0.20291 1.59047 -0.099393
-0.197271 1.60574 -0.100348
-0.189684 1.60574 -0.100348
-0.181288 1.59861 -0.0999021
-0.174509 1.60574 -0.100348
-0.166922 1.60574 -0.100348
-0.158627 1.59861 -0.0999021
-0.151747 1.60574 -0.100348
-0.144799 1.61287 -0.100793
-0.137785 1.62 -0.101238
-0.13013 1.62 -0.101238
-0.121936 1.61287 -0.100793
-0.114315 1.61287 -0.100793
-0.107166 1.62 -0.101238
-0.0995111 1.62 -0.101238
-0.0914523 1.61287 -0.100793
-0.0834608 1.60574 -0.100348
-0.378617 1.63327 -0.109656
-0.367426 1.61802 -0.108632
-0.36158 1.62615 -0.109178
-0.352116 1.61802 -0.108632
-0.342946 1.6109 -0.108154
-0.333843 1.60378 -0.107676
-0.324808 1.59666 -0.107198
-0.312808 1.57429 -0.105696
-0.30398 1.56717 -0.105218
-0.296566 1.56717 -0.105218
-0.289151 1.56717 -0.105218
-0.283017 1.57429 -0.105696
-0.276815 1.58141 -0.106174
-0.268121 1.57429 -0.105696
-0.261852 1.58141 -0.106174
-0.254371 1.58141 -0.106174
-0.243555 1.56005 -0.10474
-0.236175 1.56005 -0.10474
-0.229838 1.56717 -0.105218
-0.219537 1.54683 -0.103853
-0.107166 1.61802 -0.108632
-0.0995111 1.61802 -0.108632
-0.390193 1.64752 -0.118287
-0.378617 1.63127 -0.11712
-0.37089 1.63127 -0.11712
-0.363163 1.63127 -0.11712
-0.352116 1.61604 -0.116026
-0.342946 1.60893 -0.115516
-0.332361 1.5947 -0.114495
-0.321704 1.57947 -0.113401
-0.312808 1.57236 -0.11289
-0.302599 1.55814 -0.111869
-0.292717 1.54493 -0.110921
-0.287838 1.55814 -0.111869
-0.283017 1.57236 -0.11289
-0.275569 1.57236 -0.11289
-0.391876 1.6526 -0.126368
-0.382389 1.6455 -0.125825
-0.372737 1.63739 -0.125204
-0.363163 1.62927 -0.124584
-0.355436 1.62927 -0.124584
-0.346194 1.62217 -0.124041
-0.332361 1.59275 -0.121791
-0.321704 1.57753 -0.120627
-0.309979 1.55623 -0.118998
-0.385925 1.65868 -0.134596
-0.374585 1.64348 -0.133363
-0.366781 1.64348 -0.133363
-0.358977 1.64348 -0.133363
-0.347709 1.62727 -0.132047
-0.336807 1.61207 -0.130814
-0.403914 1.5892 -0.189129
-0.390789 1.56713 -0.186502
-0.383274 1.56713 -0.186502
-0.375759 1.56713 -0.186502
-0.368244 1.56713 -0.186502
-0.360728 1.56713 -0.186502
-0.350047 1.55308 -0.184831
-0.335075 1.51897 -0.180771
-0.320646 1.48586 -0.176831
-0.308228 1.46078 -0.173846
-0.291793 1.44874 -0.172413
-0.261809 1.4367 -0.17098
-0.253851 1.43068 -0.170264
-0.24803 1.4367 -0.17098
-0.24215 1.44272 -0.171697
-0.23425 1.4367 -0.17098
-0.0234116 1.62733 -0.193666
-0.411535 1.58723 -0.19649
-0.394734 1.55115 -0.192025
-0.383784 1.53713 -0.190288
-0.381556 1.55817 -0.192893
-0.379367 1.58021 -0.195622
-0.37343 1.58723 -0.19649
-0.359112 1.55817 -0.192893
-0.355022 1.5732 -0.194754
-0.338173 1.53111 -0.189544
-0.315233 1.45897 -0.180612
-0.283662 1.44093 -0.17838
-0.268699 1.43492 -0.177635
-0.261809 1.43492 -0.177635
-0.253851 1.42891 -0.176891
-0.24013 1.42891 -0.176891
-0.205825 1.42891 -0.176891
-0.185243 1.42891 -0.176891
-0.178382 1.42891 -0.176891
-0.0682861 1.58021 -0.195622
-0.0450911 1.56518 -0.193761
-0.0302147 1.5732 -0.194754
-0.0224445 1.55817 -0.192893
-0.0148956 1.55115 -0.192025
-0.393753 1.48918 -0.191497
-0.386594 1.48918 -0.191497
-0.38275 1.50219 -0.19317
-0.385535 1.54222 -0.198318
-0.379839 1.54923 -0.199219
-0.362528 1.50819 -0.193942
-0.361643 1.53522 -0.197417
-0.355879 1.54222 -0.198318
-0.33648 1.48918 -0.191497
-0.319583 1.44514 -0.185835
-0.0372391 1.54923 -0.199219
-0.0296566 1.54222 -0.198318
-0.363399 1.48033 -0.197479
-0.357957 1.48733 -0.198412
-0.353863 1.50032 -0.200146
-0.346641 1.50032 -0.200146
-0.0357957 1.48733 -0.198412
-0.0282709 1.46834 -0.195879
-0.350259 1.45353 -0.200912
-0.343254 1.45353 -0.200912
-0.334863 1.44754 -0.200084
-0.0206691 1.42957 -0.1976
-0.013664 1.41759 -0.195944
-0.362263 1.36497 -0.195269
-0.354118 1.35899 -0.194413
-0.331976 1.37594 -0.196838
-0.184945 1.23635 -0.176869
-0.178257 1.23137 -0.176156
-0.0344486 1.42779 -0.204255
-0.0275589 1.42779 -0.204255
-0.013664 1.41582 -0.202543
-0.335272 1.26169 -0.186608
-0.329176 1.26169 -0.186608
-0.320785 1.25273 -0.185283
-0.314733 1.25273 -0.185283
-0.307453 1.24775 -0.184546
-0.298298 1.23481 -0.182632
-0.291153 1.22983 -0.181895
-0.287289 1.23879 -0.183221
-0.283339 1.24775 -0.184546
-0.184945 1.23481 -0.182632
-0.17768 1.22584 -0.181306
-0.0466451 1.3792 -0.203988
-0.0392021 1.35231 -0.200011
-0.0327887 1.35729 -0.200747
-0.0267698 1.38517 -0.204871
-0.0202361 1.39613 -0.206492
-0.0134426 1.39115 -0.205755
-0.353127 1.23724 -0.189002
-0.351048 1.25116 -0.191129
-0.344996 1.25116 -0.191129
-0.338943 1.25116 -0.191129
-0.330509 1.24221 -0.189762
-0.325539 1.24619 -0.190369
-0.317215 1.23724 -0.189002
-0.31023 1.23326 -0.188394
-0.303037 1.22829 -0.187635
-0.297095 1.22829 -0.187635
-0.291153 1.22829 -0.187635
-0.285211 1.22829 -0.187635
-0.2804 1.23326 -0.188394
-0.229083 1.24619 -0.190369
-0.22074 1.23326 -0.188394
-0.213215 1.22431 -0.187027
-0.196083 1.22829 -0.187635
-0.190141 1.22829 -0.187635
-0.184199 1.22829 -0.187635
-0.176958 1.21934 -0.186267
-0.056335 1.29393 -0.197662
-0.050268 1.2989 -0.198422
-0.0441529 1.30388 -0.199181
-0.0379896 1.30885 -0.199941
-0.0314175 1.2989 -0.198422
-0.025134 1.2989 -0.198422
-0.0189948 1.30885 -0.199941
-0.0131155 1.35559 -0.207082
-0.00663953 1.3725 -0.209665
-0.34463 1.22675 -0.193374
-0.33622 1.21781 -0.191965
-0.330321 1.21781 -0.191965
-0.325746 1.22278 -0.192748
-0.319823 1.22278 -0.192748
-0.311606 1.21384 -0.191339
-0.304725 1.20987 -0.190712
-0.297639 1.2049 -0.189929
-0.291802 1.2049 -0.189929
-0.288088 1.21384 -0.191339
-0.283133 1.21781 -0.191965
-0.279269 1.22675 -0.193374
-0.272442 1.22278 -0.192748
-0.247168 1.24463 -0.196192
-0.24037 1.24066 -0.195566
-0.232672 1.23172 -0.194157
-0.211657 1.21384 -0.191339
-0.18226 1.21384 -0.191339
-0.072342 1.24463 -0.196192
-0.0670544 1.25854 -0.198385
-0.0611991 1.2635 -0.199167
-0.0550792 1.2635 -0.199167
-0.0493442 1.27344 -0.200733
-0.0436477 1.28734 -0.202925
-0.037701 1.29728 -0.204491
-0.0315378 1.30224 -0.205274
-0.025134 1.29728 -0.204491
-0.0188505 1.29728 -0.204491
-0.0128653 1.32807 -0.209345
-0.00648076 1.338 -0.210911
0 1.338 -0.210911
0.00655774 1.3539 -0.213416
0.0130096 1.34297 -0.211694
0.0194423 1.338 -0.210911
0.0261347 1.34893 -0.212633
0.0324038 1.338 -0.210911
0.0384227 1.32211 -0.208406
0.0459042 1.3539 -0.213416
-0.357101 1.24803 -0.202822
-0.348537 1.2391 -0.201371
-0.341156 1.23414 -0.200564
-0.334093 1.23017 -0.19992
-0.325746 1.22125 -0.198469
-0.318524 1.21629 -0.197662
-0.311606 1.21232 -0.197018
-0.304725 1.20835 -0.196373
-0.298865 1.20835 -0.196373
-0.293968 1.21232 -0.197018
-0.288088 1.21232 -0.197018
-0.283133 1.21629 -0.197662
-0.279269 1.22521 -0.199113
-0.072111 1.2391 -0.201371
-0.0668427 1.25299 -0.203628
-0.0609586 1.25696 -0.204273
-0.0550792 1.26192 -0.205079
-0.0493442 1.27184 -0.206691
-0.0433109 1.27581 -0.207336
-0.0375566 1.29069 -0.209754
-0.0311769 1.28573 -0.208948
-0.0248453 1.28077 -0.208142
-0.0187783 1.29069 -0.209754
-0.0126151 1.30061 -0.211367
-0.00635566 1.31053 -0.212979
0 1.30061 -0.211367
0.00630755 1.30061 -0.211367
0.0128076 1.32045 -0.214591
0.0194423 1.33633 -0.217171
0.0258268 1.33137 -0.216365
0.0387402 1.33137 -0.216365
0.0461062 1.35815 -0.220718
-0.394345 1.28907 -0.2158
-0.386594 1.28412 -0.214971
-0.377423 1.27421 -0.213312
-0.367195 1.26034 -0.21099
-0.361075 1.26034 -0.21099
-0.351048 1.24647 -0.208668
-0.341156 1.23259 -0.206346
-0.330321 1.21476 -0.20336
-0.319924 1.19791 -0.20054
-0.316446 1.20683 -0.202033
-0.311606 1.2108 -0.202697
-0.305726 1.2108 -0.202697
-0.296657 1.19791 -0.20054
-0.287713 1.18503 -0.198384
-0.281959 1.18503 -0.198384
-0.279207 1.19791 -0.20054
-0.27339 1.19791 -0.20054
-0.0718224 1.23259 -0.206346
-0.0663135 1.24151 -0.207839
-0.0605256 1.24647 -0.208668
-0.054473 1.24647 -0.208668
-0.0487669 1.25538 -0.210161
-0.042671 1.25538 -0.210161
-0.0367195 1.26034 -0.21099
-0.0305996 1.26034 -0.21099
-0.0245759 1.26529 -0.21182
-0.0185041 1.27024 -0.212649
-0.0123361 1.27024 -0.212649
-0.00618727 1.27421 -0.213312
0 1.29898 -0.217459
0.00630755 1.29898 -0.217459
0.0127594 1.31384 -0.219947
0.0192113 1.3188 -0.220777
0.0256151 1.3188 -0.220777
0.0321632 1.32474 -0.221772
0.0388845 1.33465 -0.223431
0.0466451 1.3723 -0.229734
-0.398891 1.30229 -0.224404
-0.394051 1.30724 -0.225257
-0.383293 1.2924 -0.222699
-0.37268 1.27755 -0.220141
-0.365049 1.27261 -0.219289
-0.358862 1.27261 -0.219289
-0.347464 1.2538 -0.216049
-0.336518 1.23599 -0.21298
-0.328127 1.22709 -0.211445
-0.322161 1.22709 -0.211445
-0.314921 1.22214 -0.210592
-0.307978 1.21818 -0.20991
-0.300828 1.21323 -0.209058
-0.293005 1.20532 -0.207693
-0.28408 1.19245 -0.205477
-0.275281 1.17959 -0.20326
-0.268641 1.17563 -0.202578
-0.262925 1.17563 -0.202578
-0.0775574 1.22709 -0.211445
-0.072111 1.23599 -0.21298
-0.0663135 1.23995 -0.213662
-0.0607661 1.24985 -0.215367
-0.0552957 1.2637 -0.217754
-0.0494982 1.27261 -0.219289
-0.0431762 1.26865 -0.218607
-0.0371236 1.27261 -0.219289
-0.0309364 1.27261 -0.219289
-0.0249415 1.2825 -0.220994
-0.0187783 1.28745 -0.221847
-0.0126151 1.29735 -0.223552
-0.00633161 1.30229 -0.224404
0 1.31219 -0.22611
0.00635566 1.30724 -0.225257
0.0127113 1.30724 -0.225257
0.0193701 1.32802 -0.228838
0.0379896 1.30229 -0.224404
-0.421543 1.35304 -0.239804
-0.405257 1.32141 -0.234199
-0.389163 1.31054 -0.232272
-0.374123 1.28089 -0.227017
-0.363913 1.26705 -0.224565
-0.357745 1.26705 -0.224565
-0.348835 1.25717 -0.222813
-0.341368 1.25223 -0.221937
-0.334214 1.24827 -0.221236
-0.326838 1.24333 -0.220361
-0.31951 1.23839 -0.219485
-0.312481 1.23444 -0.218784
-0.305245 1.2295 -0.217908
-0.29926 1.2295 -0.217908
-0.29021 1.21665 -0.215631
-0.28013 1.19886 -0.212478
-0.271581 1.187 -0.210376
-0.263811 1.1781 -0.2088
-0.24164 1.15438 -0.204596
-0.0825803 1.21171 -0.214755
-0.0772447 1.2206 -0.216332
-0.0715914 1.22554 -0.217208
-0.0661018 1.23444 -0.218784
-0.0605256 1.24333 -0.220361
-0.0550792 1.25717 -0.222813
-0.0491518 1.26211 -0.223689
-0.0371236 1.27101 -0.225265
-0.0309364 1.27101 -0.225265
-0.0249415 1.28089 -0.227017
-0.0188505 1.29077 -0.228769
-0.0126632 1.30066 -0.23052
-0.00637972 1.31054 -0.232272
0 1.32141 -0.234199
0.0064567 1.32635 -0.235075
0.018634 1.27595 -0.226141
0.025134 1.29077 -0.228769
-0.463545 1.41944 -0.258574
-0.413137 1.34541 -0.245087
-0.381826 1.28421 -0.233939
-0.370082 1.26546 -0.230522
-0.363913 1.26546 -0.230522
-0.351577 1.26546 -0.230522
-0.345409 1.26546 -0.230522
-0.334214 1.2467 -0.227106
-0.32308 1.25065 -0.227825
-0.312481 1.23288 -0.224589
-0.306472 1.23288 -0.224589
-0.29926 1.22795 -0.22369
-0.292332 1.224 -0.22297
-0.283133 1.21018 -0.220453
-0.276329 1.20623 -0.219734
-0.0548627 1.25065 -0.227825
-0.0491518 1.26052 -0.229623
-0.0430078 1.26052 -0.229623
-0.0321632 1.31975 -0.240412
-0.025923 1.32962 -0.24221
-0.0196732 1.34541 -0.245087
-0.0131732 1.35133 -0.246166
-0.00653368 1.34048 -0.244188
0 1.35133 -0.246166
0.00666358 1.36713 -0.249043
0.0131155 1.34541 -0.245087
0.0261347 1.34048 -0.244188
0.0326684 1.34048 -0.244188
-0.442914 1.35456 -0.253451
-0.435399 1.39399 -0.260829
-0.424959 1.38216 -0.258616
-0.413142 1.3654 -0.25548
-0.392391 1.31808 -0.246626
-0.37701 1.28752 -0.240907
-0.365049 1.2678 -0.237218
-0.0713028 1.21752 -0.227811
-0.0658372 1.2264 -0.229471
-0.060285 1.23527 -0.231131
-0.054473 1.2402 -0.232053
-0.0484204 1.2402 -0.232053
-0.0390289 1.33287 -0.249393
-0.0337269 1.38216 -0.258616
-0.0272124 1.39399 -0.260829
-0.0205825 1.40582 -0.263043
-0.0137217 1.40582 -0.263043
-0.00688971 1.41174 -0.26415
0 1.41765 -0.265256
0.00683198 1.39991 -0.261936
0.0131732 1.34963 -0.252529
0.0378453 1.29245 -0.24183
0.0439845 1.28752 -0.240907
-0.417886 1.29574 -0.248868
-0.422813 1.33119 -0.255676
-0.421543 1.34792 -0.258891
-0.423443 1.37549 -0.264186
-0.413142 1.36368 -0.261916
-0.40325 1.35285 -0.259836
-0.377823 1.31051 -0.251705
-0.376808 1.35285 -0.259836
-0.372045 1.40995 -0.270805
-0.371275 1.43358 -0.275343
-0.361267 1.42177 -0.273074
-0.352848 1.41586 -0.271939
-0.337596 1.40995 -0.270805
-0.336249 1.43358 -0.275343
-0.27045 1.20319 -0.231092
-0.0707831 1.20713 -0.231848
-0.0648845 1.20713 -0.231848
-0.0592265 1.21205 -0.232794
-0.0536936 1.22091 -0.234496
-0.0477276 1.22091 -0.234496
-0.0417617 1.22091 -0.234496
-0.0208423 1.42177 -0.273074
-0.0140104 1.43358 -0.275343
-0.00703405 1.43949 -0.276478
0.0433109 1.2662 -0.243195
-0.416154 1.25083 -0.246458
-0.408427 1.28427 -0.253046
-0.414768 1.32458 -0.26099
-0.413142 1.36195 -0.268353
-0.405011 1.35704 -0.267384
-0.39664 1.35114 -0.266222
-0.390029 1.35114 -0.266222
-0.394359 1.41407 -0.278622
-0.390674 1.42587 -0.280947
-0.37828 1.43177 -0.28211
-0.37765 1.45635 -0.286954
-0.36427 1.43177 -0.28211
-0.352848 1.41407 -0.278622
-0.347372 1.41997 -0.279785
-0.347733 1.45045 -0.285791
-0.0407176 1.18888 -0.234252
-0.0351606 1.19773 -0.235996
-0.0146358 1.49569 -0.294704
-0.00731791 1.49569 -0.294704
0.0384227 1.30885 -0.25789
-0.414547 1.263 -0.255148
-0.422813 1.32782 -0.268242
-0.421543 1.34451 -0.271615
-0.41829 1.35532 -0.273797
-0.411468 1.37692 -0.278162
-0.404723 1.37692 -0.278162
-0.40479 1.40049 -0.282924
-0.399295 1.42996 -0.288876
-0.397409 1.44862 -0.292646
-0.393753 1.46139 -0.295225
-0.383216 1.44862 -0.292646
-0.372805 1.43585 -0.290067
-0.365771 1.43585 -0.290067
-0.360454 1.44273 -0.291455
-0.362528 1.48005 -0.298995
-0.350798 1.46139 -0.295225
0.0222424 1.51344 -0.305741
-0.416159 1.2663 -0.262139
-0.411535 1.27121 -0.263154
-0.418122 1.31142 -0.27148
-0.419695 1.33692 -0.276759
-0.411622 1.33202 -0.275744
-0.409861 1.34771 -0.278992
-0.41 1.37027 -0.283663
-0.409919 1.39283 -0.288333
-0.406493 1.4046 -0.290769
-0.406301 1.42814 -0.295643
-0.404506 1.44678 -0.299501
-0.399026 1.45267 -0.300719
-0.395341 1.46542 -0.303359
-0.381657 1.4409 -0.298282
-0.369745 1.42226 -0.294424
-0.365771 1.43403 -0.296861
-0.365116 1.45953 -0.30214
-0.35483 1.44678 -0.299501
0 1.44678 -0.299501
0.00718801 1.46542 -0.303359
0.0146358 1.4919 -0.308841
0.0218527 1.48504 -0.30742
0.0282709 1.4409 -0.298282
0.0348816 1.42226 -0.294424
-0.425829 1.29408 -0.27437
-0.409948 1.26469 -0.268139
-0.408427 1.27939 -0.271254
-0.414768 1.31955 -0.27977
-0.413137 1.33523 -0.283093
-0.416722 1.36853 -0.290155
-0.420273 1.40282 -0.297424
-0.411651 1.39694 -0.296178
-0.411603 1.42045 -0.301163
-0.411603 1.44494 -0.306355
-0.409717 1.46356 -0.310302
-0.406031 1.47629 -0.313002
-0.400633 1.48315 -0.314456
-0.386594 1.45768 -0.309056
-0.37612 1.44494 -0.306355
-0.375528 1.47041 -0.311756
-0.374931 1.49686 -0.317363
-0.454028 1.92594 -0.408335
0 1.45082 -0.307602
0.00718801 1.46356 -0.310302
0.0147609 1.50274 -0.31861
0.0222424 1.5096 -0.320064
0.0290022 1.47629 -0.313002
0.0351703 1.43221 -0.303655
0.0416847 1.41458 -0.299917
-0.416154 1.2445 -0.270104
-0.410034 1.2445 -0.270104
-0.399469 1.2308 -0.267131
-0.391852 1.22591 -0.266069
-0.394754 1.25428 -0.272227
-0.401922 1.29733 -0.281571
-0.409861 1.34429 -0.291763
