ply
format ascii 1.0
comment Created by Open3D
element vertex 1571
property double x
property double y
property double z
end_header
-0.148235 0.372195 -0.137112
-0.18481 0.365116 -0.136485
-0.154258 0.367939 -0.13754
-0.152377 0.367939 -0.13754
-0.150881 0.36888 -0.137892
-0.148995 0.36888 -0.137892
-0.206383 0.359934 -0.136506
-0.205609 0.361814 -0.137219
-0.204815 0.363693 -0.137932
-0.202953 0.363693 -0.137932
-0.188543 0.364633 -0.138288
-0.186677 0.364633 -0.138288
-0.15574 0.366513 -0.139001
-0.154258 0.367452 -0.139357
-0.152767 0.368392 -0.139714
-0.150496 0.367452 -0.139357
-0.148235 0.366513 -0.139001
-0.146734 0.367452 -0.139357
-0.228544 0.353826 -0.13612
-0.227933 0.355703 -0.136842
-0.227303 0.35758 -0.137564
-0.224878 0.356642 -0.137203
-0.22305 0.356642 -0.137203
-0.218893 0.352887 -0.135759
-0.217084 0.352887 -0.135759
-0.215847 0.353826 -0.13612
-0.214033 0.353826 -0.13612
-0.213908 0.356642 -0.137203
-0.213196 0.358519 -0.137925
-0.213571 0.362273 -0.139369
-0.212263 0.363211 -0.13973
-0.210945 0.36415 -0.140091
-0.208539 0.363211 -0.13973
-0.205609 0.361334 -0.139008
-0.204815 0.363211 -0.13973
-0.202953 0.363211 -0.13973
-0.201611 0.36415 -0.140091
-0.199744 0.36415 -0.140091
-0.197877 0.36415 -0.140091
-0.192643 0.361334 -0.139008
-0.191286 0.362273 -0.139369
-0.189919 0.363211 -0.13973
-0.188543 0.36415 -0.140091
-0.186677 0.36415 -0.140091
-0.173162 0.363211 -0.13973
-0.159084 0.365088 -0.140452
-0.157617 0.366027 -0.140813
-0.15614 0.366965 -0.141174
-0.154653 0.367904 -0.141535
-0.152767 0.367904 -0.141535
-0.150496 0.366965 -0.141174
-0.147855 0.365088 -0.140452
-0.145983 0.365088 -0.140452
-0.144852 0.366965 -0.141174
-0.143702 0.368842 -0.141897
-0.230969 0.354294 -0.138237
-0.22915 0.354294 -0.138237
-0.227332 0.354294 -0.138237
-0.22611 0.355231 -0.138603
-0.223103 0.353357 -0.137872
-0.220702 0.352419 -0.137506
-0.218893 0.352419 -0.137506
-0.217661 0.353357 -0.137872
-0.215275 0.352419 -0.137506
-0.213466 0.352419 -0.137506
-0.21222 0.353357 -0.137872
-0.211522 0.355231 -0.138603
-0.210805 0.357106 -0.139334
-0.210617 0.359918 -0.140432
-0.209857 0.361792 -0.141163
-0.208539 0.362729 -0.141529
-0.206143 0.361792 -0.141163
-0.204286 0.361792 -0.141163
-0.202953 0.362729 -0.141529
-0.201611 0.363667 -0.141894
-0.199744 0.363667 -0.141894
-0.197877 0.363667 -0.141894
-0.195505 0.362729 -0.141529
-0.193643 0.362729 -0.141529
-0.191781 0.362729 -0.141529
-0.189919 0.362729 -0.141529
-0.188543 0.363667 -0.141894
-0.186677 0.363667 -0.141894
-0.18481 0.363667 -0.141894
-0.182943 0.363667 -0.141894
-0.181076 0.363667 -0.141894
-0.178748 0.362729 -0.141529
-0.176886 0.362729 -0.141529
-0.175024 0.362729 -0.141529
-0.173162 0.362729 -0.141529
-0.1713 0.362729 -0.141529
-0.168562 0.360855 -0.140797
-0.167143 0.361792 -0.141163
-0.159084 0.364604 -0.14226
-0.157212 0.364604 -0.14226
-0.155341 0.364604 -0.14226
-0.154258 0.366479 -0.142992
-0.152767 0.367416 -0.143357
-0.150496 0.366479 -0.142992
-0.147855 0.364604 -0.14226
-0.146734 0.366479 -0.142992
-0.144852 0.366479 -0.142992
-0.143702 0.368353 -0.143723
-0.236425 0.353823 -0.139994
-0.233986 0.352887 -0.139624
-0.232172 0.352887 -0.139624
-0.23158 0.354759 -0.140364
-0.229757 0.354759 -0.140364
-0.227332 0.353823 -0.139994
-0.225513 0.353823 -0.139994
-0.223103 0.352887 -0.139624
-0.221289 0.352887 -0.139624
-0.219475 0.352887 -0.139624
-0.218816 0.354759 -0.140364
-0.217565 0.355695 -0.140735
-0.215169 0.354759 -0.140364
-0.21222 0.352887 -0.139624
-0.210964 0.353823 -0.139994
-0.209698 0.354759 -0.140364
-0.208972 0.356631 -0.141105
-0.20877 0.359439 -0.142216
-0.208 0.361311 -0.142957
-0.206677 0.362247 -0.143327
-0.205344 0.363184 -0.143698
-0.201611 0.363184 -0.143698
-0.199744 0.363184 -0.143698
-0.197877 0.363184 -0.143698
-0.19601 0.363184 -0.143698
-0.194144 0.363184 -0.143698
-0.192277 0.363184 -0.143698
-0.19041 0.363184 -0.143698
-0.188543 0.363184 -0.143698
-0.186677 0.363184 -0.143698
-0.18481 0.363184 -0.143698
-0.182943 0.363184 -0.143698
-0.181076 0.363184 -0.143698
-0.177343 0.363184 -0.143698
-0.175024 0.362247 -0.143327
-0.173609 0.363184 -0.143698
-0.1713 0.362247 -0.143327
-0.169 0.361311 -0.142957
-0.167143 0.361311 -0.142957
-0.164699 0.36412 -0.144068
-0.161369 0.365056 -0.144438
-0.157212 0.36412 -0.144068
-0.155341 0.36412 -0.144068
-0.153864 0.365056 -0.144438
-0.152377 0.365992 -0.144809
-0.149726 0.36412 -0.144068
-0.147855 0.36412 -0.144068
-0.146734 0.365992 -0.144809
-0.144799 0.370672 -0.14666
-0.235174 0.351483 -0.141001
-0.234606 0.353352 -0.141751
-0.234635 0.356157 -0.142876
-0.233413 0.357092 -0.143251
-0.230363 0.355222 -0.142501
-0.228534 0.355222 -0.142501
-0.22611 0.354287 -0.142126
-0.223694 0.353352 -0.141751
-0.222463 0.354287 -0.142126
-0.221804 0.356157 -0.142876
-0.219393 0.355222 -0.142501
-0.216992 0.354287 -0.142126
-0.215737 0.355222 -0.142501
-0.214471 0.356157 -0.142876
-0.210964 0.353352 -0.141751
-0.208592 0.352418 -0.141376
-0.207875 0.354287 -0.142126
-0.207683 0.357092 -0.143251
-0.208 0.360831 -0.144751
-0.206677 0.361766 -0.145126
-0.198387 0.363635 -0.145876
-0.19601 0.3627 -0.145501
-0.194644 0.363635 -0.145876
-0.192277 0.3627 -0.145501
-0.19041 0.3627 -0.145501
-0.188543 0.3627 -0.145501
-0.18481 0.3627 -0.145501
-0.182943 0.3627 -0.145501
-0.181076 0.3627 -0.145501
-0.177343 0.3627 -0.145501
-0.175476 0.3627 -0.145501
-0.173609 0.3627 -0.145501
-0.1713 0.361766 -0.145126
-0.169876 0.3627 -0.145501
-0.164699 0.363635 -0.145876
-0.162827 0.363635 -0.145876
-0.160956 0.363635 -0.145876
-0.159084 0.363635 -0.145876
-0.157212 0.363635 -0.145876
-0.154942 0.3627 -0.145501
-0.15268 0.361766 -0.145126
-0.151208 0.3627 -0.145501
-0.148956 0.361766 -0.145126
-0.146714 0.360831 -0.144751
-0.235174 0.351015 -0.142748
-0.233365 0.351015 -0.142748
-0.232788 0.352882 -0.143507
-0.232191 0.354749 -0.144267
-0.230969 0.355682 -0.144646
-0.229136 0.355682 -0.144646
-0.226706 0.354749 -0.144267
-0.223694 0.352882 -0.143507
-0.221876 0.352882 -0.143507
-0.220639 0.353815 -0.143887
-0.218238 0.352882 -0.143507
-0.21642 0.352882 -0.143507
-0.21222 0.351948 -0.143128
-0.207139 0.355682 -0.144646
-0.206383 0.357549 -0.145406
-0.206677 0.361284 -0.146924
-0.205873 0.363151 -0.147684
-0.204526 0.364084 -0.148063
-0.19601 0.362217 -0.147304
-0.194144 0.362217 -0.147304
-0.192277 0.362217 -0.147304
-0.19041 0.362217 -0.147304
-0.17921 0.362217 -0.147304
-0.177343 0.362217 -0.147304
-0.175476 0.362217 -0.147304
-0.173609 0.362217 -0.147304
-0.163246 0.364084 -0.148063
-0.161369 0.364084 -0.148063
-0.159084 0.363151 -0.147684
-0.154542 0.361284 -0.146924
-0.151891 0.359417 -0.146165
-0.150039 0.359417 -0.146165
-0.146647 0.355682 -0.144646
-0.237074 0.340291 -0.140268
-0.236122 0.34402 -0.141805
-0.235617 0.345885 -0.142574
-0.233832 0.345885 -0.142574
-0.233365 0.350546 -0.144495
-0.232172 0.351479 -0.14488
-0.23158 0.353343 -0.145648
-0.231575 0.35614 -0.146801
-0.23094 0.358005 -0.14757
-0.229689 0.358937 -0.147954
-0.228429 0.359869 -0.148338
-0.225398 0.358005 -0.14757
-0.220639 0.353343 -0.145648
-0.218238 0.352411 -0.145264
-0.215847 0.351479 -0.14488
-0.209314 0.358937 -0.147954
-0.208 0.359869 -0.148338
-0.206143 0.359869 -0.148338
-0.205344 0.361734 -0.149107
-0.204002 0.362666 -0.149491
-0.19601 0.361734 -0.149107
-0.193643 0.360802 -0.148723
-0.191781 0.360802 -0.148723
-0.19041 0.361734 -0.149107
-0.188543 0.361734 -0.149107
-0.186677 0.361734 -0.149107
-0.18481 0.361734 -0.149107
-0.17921 0.361734 -0.149107
-0.177343 0.361734 -0.149107
-0.175024 0.360802 -0.148723
-0.162409 0.361734 -0.149107
-0.160542 0.361734 -0.149107
-0.154788 0.357073 -0.147186
-0.14913 0.352411 -0.145264
-0.147311 0.352411 -0.145264
-0.145492 0.352411 -0.145264
-0.144054 0.353343 -0.145648
-0.234674 0.338905 -0.141576
-0.233562 0.339837 -0.141964
-0.231171 0.338905 -0.141576
-0.22942 0.338905 -0.141576
-0.233403 0.352871 -0.14741
-0.234606 0.36032 -0.150521
-0.232744 0.36032 -0.150521
-0.232076 0.362182 -0.151299
-0.217661 0.351009 -0.146632
-0.21642 0.35194 -0.147021
-0.209968 0.347285 -0.145076
-0.209145 0.35194 -0.147021
-0.205306 0.354733 -0.148188
-0.205075 0.357527 -0.149354
-0.204286 0.359389 -0.150132
-0.202953 0.36032 -0.150521
-0.197367 0.36032 -0.150521
-0.193143 0.359389 -0.150132
-0.19079 0.358458 -0.149743
-0.186195 0.36032 -0.150521
-0.18481 0.361251 -0.15091
-0.178748 0.36032 -0.150521
-0.16657 0.362182 -0.151299
-0.162409 0.361251 -0.15091
-0.160128 0.36032 -0.150521
-0.157448 0.358458 -0.149743
-0.151959 0.350078 -0.146243
-0.14975 0.349147 -0.145854
-0.144338 0.349147 -0.145854
-0.143674 0.35194 -0.147021
-0.235039 0.329154 -0.139331
-0.236632 0.333803 -0.141299
-0.236213 0.335663 -0.142086
-0.233384 0.336593 -0.14248
-0.232282 0.337522 -0.142874
-0.231806 0.339382 -0.143661
-0.233201 0.344031 -0.145629
-0.234 0.358908 -0.151926
-0.232744 0.359838 -0.15232
-0.229612 0.360768 -0.152713
-0.215847 0.35054 -0.148384
-0.214033 0.35054 -0.148384
-0.21222 0.35054 -0.148384
-0.211522 0.352399 -0.149171
-0.196857 0.358908 -0.151926
-0.19399 0.357048 -0.151139
-0.19079 0.357978 -0.151533
-0.189919 0.359838 -0.15232
-0.188057 0.359838 -0.15232
-0.186195 0.359838 -0.15232
-0.184334 0.359838 -0.15232
-0.182943 0.360768 -0.152713
-0.18061 0.359838 -0.15232
-0.177362 0.357048 -0.151139
-0.176429 0.358908 -0.151926
-0.167143 0.358908 -0.151926
-0.165714 0.359838 -0.15232
-0.163429 0.358908 -0.151926
-0.160734 0.357048 -0.151139
-0.158059 0.355189 -0.150352
-0.154586 0.35147 -0.148777
-0.15115 0.34775 -0.147203
-0.149351 0.34775 -0.147203
-0.147551 0.34775 -0.147203
-0.145752 0.34775 -0.147203
-0.143953 0.34775 -0.147203
-0.234611 0.316642 -0.135799
-0.233654 0.31757 -0.136198
-0.234905 0.333356 -0.142968
-0.233827 0.334285 -0.143366
-0.23274 0.335213 -0.143764
-0.231643 0.336142 -0.144162
-0.231171 0.337999 -0.144959
-0.23068 0.339856 -0.145755
-0.233403 0.351927 -0.150932
-0.232802 0.353785 -0.151729
-0.218238 0.350999 -0.150534
-0.21642 0.350999 -0.150534
-0.215169 0.351927 -0.150932
-0.214471 0.353785 -0.151729
-0.213196 0.354713 -0.152127
-0.204541 0.355642 -0.152525
-0.203227 0.35657 -0.152924
-0.196347 0.357499 -0.153322
-0.193485 0.355642 -0.152525
-0.191642 0.355642 -0.152525
-0.190295 0.35657 -0.152924
-0.188938 0.357499 -0.153322
-0.187086 0.357499 -0.153322
-0.185233 0.357499 -0.153322
-0.183857 0.358427 -0.15372
-0.182 0.358427 -0.15372
-0.17921 0.35657 -0.152924
-0.177362 0.35657 -0.152924
-0.167576 0.359356 -0.154118
-0.165286 0.358427 -0.15372
-0.162582 0.35657 -0.152924
-0.159897 0.354713 -0.152127
-0.156818 0.351927 -0.150932
-0.153768 0.349142 -0.149738
-0.15115 0.347285 -0.148941
-0.149351 0.347285 -0.148941
-0.146921 0.35007 -0.150136
-0.145107 0.35007 -0.150136
-0.150602 0.392784 -0.168455
-0.235987 0.318072 -0.13819
-0.234375 0.327345 -0.142219
-0.234654 0.330127 -0.143427
-0.23425 0.331982 -0.144233
-0.231878 0.331054 -0.14383
-0.23145 0.332909 -0.144636
-0.232441 0.3394 -0.147456
-0.233201 0.34311 -0.149068
-0.233298 0.345892 -0.150276
-0.232802 0.35331 -0.153499
-0.21997 0.35331 -0.153499
-0.218137 0.35331 -0.153499
-0.216304 0.35331 -0.153499
-0.215597 0.355165 -0.154305
-0.214312 0.356092 -0.154708
-0.212465 0.356092 -0.154708
-0.210617 0.356092 -0.154708
-0.208226 0.355165 -0.154305
-0.205845 0.354237 -0.153902
-0.203473 0.35331 -0.153499
-0.202169 0.354237 -0.153902
-0.198493 0.354237 -0.153902
-0.194307 0.35331 -0.153499
-0.193485 0.355165 -0.154305
-0.191642 0.355165 -0.154305
-0.190295 0.356092 -0.154708
-0.187086 0.357019 -0.155111
-0.185233 0.357019 -0.155111
-0.182905 0.356092 -0.154708
-0.182 0.357947 -0.155514
-0.180143 0.357947 -0.155514
-0.178286 0.357947 -0.155514
-0.175972 0.357019 -0.155111
-0.170415 0.357019 -0.155111
-0.162582 0.356092 -0.154708
-0.157804 0.349601 -0.151888
-0.155163 0.347746 -0.151082
-0.152541 0.345892 -0.150276
-0.149534 0.34311 -0.149068
-0.147754 0.34311 -0.149068
-0.145752 0.346819 -0.150679
-0.144722 0.348674 -0.151485
-0.143674 0.350528 -0.152291
-0.150602 0.392258 -0.170421
-0.233995 0.328758 -0.144674
-0.232287 0.328758 -0.144674
-0.231878 0.33061 -0.145489
-0.230161 0.33061 -0.145489
-0.232441 0.338945 -0.149157
-0.232571 0.341723 -0.15038
-0.232672 0.344501 -0.151602
-0.232788 0.350057 -0.154047
-0.234024 0.354688 -0.156085
-0.218137 0.352836 -0.15527
-0.216872 0.353762 -0.155678
-0.215034 0.353762 -0.155678
-0.213196 0.353762 -0.155678
-0.211358 0.353762 -0.155678
-0.210069 0.354688 -0.156085
-0.20877 0.355614 -0.156493
-0.205845 0.353762 -0.155678
-0.204007 0.353762 -0.155678
-0.202169 0.353762 -0.155678
-0.197973 0.352836 -0.15527
-0.195111 0.350984 -0.154455
-0.193287 0.350984 -0.154455
-0.192474 0.352836 -0.15527
-0.191141 0.353762 -0.155678
-0.189304 0.353762 -0.155678
-0.1866 0.355614 -0.156493
-0.183309 0.352836 -0.15527
-0.182428 0.354688 -0.156085
-0.181057 0.355614 -0.156493
-0.179676 0.35654 -0.1569
-0.178286 0.357466 -0.157308
-0.175514 0.355614 -0.156493
-0.169972 0.355614 -0.156493
-0.153922 0.344501 -0.151602
-0.150496 0.340797 -0.149972
-0.147917 0.338945 -0.149157
-0.232441 0.338489 -0.150858
-0.231941 0.340338 -0.151682
-0.232672 0.344038 -0.153331
-0.23158 0.350512 -0.156216
-0.232181 0.354211 -0.157865
-0.21208 0.351436 -0.156629
-0.205508 0.349587 -0.155804
-0.204228 0.350512 -0.156216
-0.200581 0.350512 -0.156216
-0.194596 0.349587 -0.155804
-0.192777 0.349587 -0.155804
-0.191464 0.350512 -0.156216
-0.18964 0.350512 -0.156216
-0.185503 0.349587 -0.155804
-0.180523 0.350512 -0.156216
-0.179643 0.352361 -0.157041
-0.233177 0.331568 -0.149641
-0.232922 0.336186 -0.151725
-0.232441 0.338033 -0.152559
-0.231941 0.33988 -0.153393
-0.232047 0.342651 -0.154643
-0.231503 0.344498 -0.155477
-0.217084 0.347269 -0.156727
-0.215847 0.348193 -0.157144
-0.214033 0.348193 -0.157144
-0.211657 0.347269 -0.156727
-0.209848 0.347269 -0.156727
-0.207875 0.35004 -0.157978
-0.205508 0.349116 -0.157561
-0.203689 0.349116 -0.157561
-0.201871 0.349116 -0.157561
-0.200581 0.35004 -0.157978
-0.198758 0.35004 -0.157978
-0.196934 0.35004 -0.157978
-0.19614 0.351887 -0.158811
-0.193287 0.35004 -0.157978
-0.191464 0.35004 -0.157978
-0.18964 0.35004 -0.157978
-0.187321 0.349116 -0.157561
-0.185503 0.349116 -0.157561
-0.183684 0.349116 -0.157561
-0.182346 0.35004 -0.157978
-0.1787 0.35004 -0.157978
-0.177343 0.350963 -0.158395
-0.175976 0.351887 -0.158811
-0.1746 0.35281 -0.159228
-0.168644 0.351887 -0.158811
-0.236839 0.300684 -0.137401
-0.234905 0.331121 -0.15131
-0.235126 0.333888 -0.152574
-0.234029 0.33481 -0.152995
-0.233562 0.336655 -0.153838
-0.232441 0.337577 -0.15426
-0.231941 0.339422 -0.155103
-0.231421 0.341267 -0.155946
-0.230882 0.343111 -0.156789
-0.229708 0.344034 -0.15721
-0.225527 0.345878 -0.158053
-0.222511 0.346801 -0.158475
-0.221289 0.347723 -0.158896
-0.220639 0.349568 -0.159739
-0.218238 0.348645 -0.159318
-0.215275 0.346801 -0.158475
-0.213466 0.346801 -0.158475
-0.211657 0.346801 -0.158475
-0.209848 0.346801 -0.158475
-0.208039 0.346801 -0.158475
-0.206778 0.347723 -0.158896
-0.205508 0.348645 -0.159318
-0.20315 0.347723 -0.158896
-0.201336 0.347723 -0.158896
-0.200052 0.348645 -0.159318
-0.198233 0.348645 -0.159318
-0.196415 0.348645 -0.159318
-0.194596 0.348645 -0.159318
-0.192777 0.348645 -0.159318
-0.190959 0.348645 -0.159318
-0.18914 0.348645 -0.159318
-0.186826 0.347723 -0.158896
-0.185012 0.347723 -0.158896
-0.183684 0.348645 -0.159318
-0.181865 0.348645 -0.159318
-0.180047 0.348645 -0.159318
-0.175476 0.346801 -0.158475
-0.174129 0.347723 -0.158896
-0.171858 0.346801 -0.158475
-0.170049 0.346801 -0.158475
-0.167792 0.345878 -0.158053
-0.165988 0.345878 -0.158053
-0.163746 0.344956 -0.157632
-0.157617 0.335733 -0.153417
-0.14988 0.326509 -0.149202
-0.146815 0.331121 -0.15131
-0.237031 0.296593 -0.137211
-0.235482 0.296593 -0.137211
-0.236112 0.299357 -0.13849
-0.23527 0.300278 -0.138916
-0.234419 0.301199 -0.139342
-0.233557 0.30212 -0.139768
-0.233009 0.307646 -0.142325
-0.232788 0.309489 -0.143177
-0.231171 0.309489 -0.143177
-0.234654 0.327911 -0.1517
-0.235559 0.331595 -0.153404
-0.235126 0.333437 -0.154256
-0.233384 0.333437 -0.154256
-0.233562 0.3362 -0.155535
-0.232441 0.337122 -0.155961
-0.231311 0.338043 -0.156387
-0.231503 0.343569 -0.158944
-0.227332 0.345411 -0.159796
-0.225527 0.345411 -0.159796
-0.223723 0.345411 -0.159796
-0.222511 0.346332 -0.160222
-0.220702 0.346332 -0.160222
-0.219475 0.347254 -0.160648
-0.217661 0.347254 -0.160648
-0.215275 0.346332 -0.160222
-0.212898 0.345411 -0.159796
-0.211094 0.345411 -0.159796
-0.209289 0.345411 -0.159796
-0.208039 0.346332 -0.160222
-0.20623 0.346332 -0.160222
-0.20442 0.346332 -0.160222
-0.202611 0.346332 -0.160222
-0.200802 0.346332 -0.160222
-0.199523 0.347254 -0.160648
-0.197709 0.347254 -0.160648
-0.195375 0.346332 -0.160222
-0.193051 0.345411 -0.159796
-0.190227 0.343569 -0.158944
-0.188433 0.343569 -0.158944
-0.186638 0.343569 -0.158944
-0.185339 0.34449 -0.15937
-0.18354 0.34449 -0.15937
-0.182226 0.345411 -0.159796
-0.180903 0.346332 -0.160222
-0.179094 0.346332 -0.160222
-0.177285 0.346332 -0.160222
-0.174076 0.343569 -0.158944
-0.171819 0.342648 -0.158518
-0.169573 0.341727 -0.158091
-0.167788 0.341727 -0.158091
-0.163765 0.337122 -0.155961
-0.161119 0.335279 -0.155109
-0.158492 0.333437 -0.154256
-0.156751 0.333437 -0.154256
-0.153724 0.330674 -0.152978
-0.150727 0.327911 -0.1517
-0.149433 0.328832 -0.152126
-0.23858 0.296192 -0.138708
-0.236213 0.297112 -0.139139
-0.236112 0.298952 -0.14
-0.234549 0.298952 -0.14
-0.233702 0.299872 -0.140431
-0.233557 0.301711 -0.141292
-0.233707 0.30815 -0.144308
-0.234173 0.31091 -0.1456
-0.235314 0.328387 -0.153785
-0.233832 0.341265 -0.159816
-0.226725 0.344025 -0.161108
-0.224926 0.344025 -0.161108
-0.223127 0.344025 -0.161108
-0.221327 0.344025 -0.161108
-0.218941 0.343105 -0.160677
-0.217146 0.343105 -0.160677
-0.215929 0.344025 -0.161108
-0.214702 0.344944 -0.161539
-0.211762 0.343105 -0.160677
-0.209968 0.343105 -0.160677
-0.208731 0.344025 -0.161108
-0.206932 0.344025 -0.161108
-0.201534 0.344025 -0.161108
-0.200268 0.344944 -0.161539
-0.197935 0.344025 -0.161108
-0.196136 0.344025 -0.161108
-0.193816 0.343105 -0.160677
-0.189963 0.339425 -0.158954
-0.188187 0.339425 -0.158954
-0.186412 0.339425 -0.158954
-0.185637 0.341265 -0.159816
-0.185339 0.344025 -0.161108
-0.18354 0.344025 -0.161108
-0.18174 0.344025 -0.161108
-0.179941 0.344025 -0.161108
-0.178618 0.344944 -0.161539
-0.176814 0.344944 -0.161539
-0.174543 0.344025 -0.161108
-0.170896 0.340345 -0.159385
-0.169116 0.340345 -0.159385
-0.16824 0.342185 -0.160246
-0.165555 0.340345 -0.159385
-0.161119 0.334826 -0.1568
-0.158054 0.332067 -0.155508
-0.156318 0.332067 -0.155508
-0.153296 0.329307 -0.154216
-0.15115 0.328387 -0.153785
-0.149433 0.328387 -0.153785
-0.147301 0.327467 -0.153354
-0.236112 0.298547 -0.14151
-0.23527 0.299466 -0.141946
-0.233913 0.305896 -0.144994
-0.233707 0.307733 -0.145865
-0.23348 0.30957 -0.146736
-0.232547 0.310489 -0.147171
-0.233711 0.32335 -0.153267
-0.232677 0.324268 -0.153702
-0.230324 0.32335 -0.153267
-0.228631 0.32335 -0.153267
-0.228227 0.325187 -0.154138
-0.230796 0.338966 -0.160669
-0.2284 0.338047 -0.160233
-0.226629 0.338047 -0.160233
-0.227303 0.341722 -0.161975
-0.226119 0.34264 -0.162411
-0.224325 0.34264 -0.162411
-0.22074 0.339884 -0.161104
-0.218368 0.338966 -0.160669
-0.216006 0.338047 -0.160233
-0.213653 0.337129 -0.159798
-0.212465 0.338047 -0.160233
-0.211839 0.339884 -0.161104
-0.210627 0.340803 -0.16154
-0.208842 0.340803 -0.16154
-0.206499 0.339884 -0.161104
-0.203612 0.338047 -0.160233
-0.201842 0.338047 -0.160233
-0.200071 0.338047 -0.160233
-0.197762 0.337129 -0.159798
-0.195462 0.33621 -0.159363
-0.193701 0.33621 -0.159363
-0.19194 0.33621 -0.159363
-0.190699 0.337129 -0.159798
-0.189448 0.338047 -0.160233
-0.178497 0.340803 -0.16154
-0.16417 0.333454 -0.158056
-0.161976 0.332536 -0.157621
-0.160234 0.332536 -0.157621
-0.15893 0.333454 -0.158056
-0.156318 0.331617 -0.157186
-0.154153 0.330698 -0.15675
-0.151997 0.32978 -0.156315
-0.150688 0.330698 -0.15675
-0.148956 0.330698 -0.15675
-0.144852 0.359175 -0.170248
-0.144068 0.361931 -0.171554
-0.23527 0.29906 -0.143461
-0.234419 0.299977 -0.143901
-0.233557 0.300895 -0.144341
-0.232687 0.301812 -0.144781
-0.232509 0.303647 -0.145661
-0.233009 0.306399 -0.146981
-0.23348 0.309151 -0.148302
-0.233235 0.310985 -0.149182
-0.232287 0.311903 -0.149622
-0.233047 0.321994 -0.154463
-0.231359 0.321994 -0.154463
-0.22967 0.321994 -0.154463
-0.228631 0.322911 -0.154903
-0.230796 0.338506 -0.162384
-0.227779 0.336672 -0.161504
-0.226013 0.336672 -0.161504
-0.224859 0.337589 -0.161944
-0.222482 0.336672 -0.161504
-0.221318 0.337589 -0.161944
-0.219547 0.337589 -0.161944
-0.217185 0.336672 -0.161504
-0.215419 0.336672 -0.161504
-0.213071 0.335754 -0.161064
-0.211888 0.336672 -0.161504
-0.211267 0.338506 -0.162384
-0.210627 0.340341 -0.163264
-0.208279 0.339424 -0.162824
-0.204825 0.336672 -0.161504
-0.202506 0.335754 -0.161064
-0.200745 0.335754 -0.161064
-0.197896 0.33392 -0.160183
-0.196145 0.33392 -0.160183
-0.194394 0.33392 -0.160183
-0.192643 0.33392 -0.160183
-0.190891 0.33392 -0.160183
-0.18914 0.33392 -0.160183
-0.186874 0.333002 -0.159743
-0.165002 0.331167 -0.158863
-0.163265 0.331167 -0.158863
-0.161976 0.332085 -0.159303
-0.156318 0.331167 -0.158863
-0.153296 0.328415 -0.157543
-0.151997 0.329333 -0.157983
-0.119078 0.34401 -0.165024
-0.116962 0.343093 -0.164584
-0.115162 0.343093 -0.164584
-0.238696 0.289493 -0.140529
-0.237926 0.290409 -0.140974
-0.236401 0.290409 -0.140974
-0.235992 0.29957 -0.145421
-0.235136 0.300486 -0.145865
-0.233557 0.300486 -0.145865
-0.231979 0.300486 -0.145865
-0.231104 0.301402 -0.14631
-0.232095 0.306899 -0.148978
-0.231859 0.308731 -0.149868
-0.23017 0.337131 -0.163654
-0.2284 0.337131 -0.163654
-0.226013 0.336215 -0.163209
-0.223026 0.334382 -0.16232
-0.221269 0.334382 -0.16232
-0.218912 0.333466 -0.161875
-0.218354 0.335298 -0.162764
-0.216593 0.335298 -0.162764
-0.214832 0.335298 -0.162764
-0.213071 0.335298 -0.162764
-0.211888 0.336215 -0.163209
-0.207221 0.334382 -0.16232
-0.198002 0.330718 -0.160541
-0.196809 0.331634 -0.160986
-0.192643 0.333466 -0.161875
-0.190367 0.33255 -0.16143
-0.18862 0.33255 -0.16143
-0.182371 0.330718 -0.160541
-0.180634 0.330718 -0.160541
-0.178401 0.329802 -0.160096
-0.168798 0.32797 -0.159207
-0.167076 0.32797 -0.159207
-0.165815 0.328886 -0.159651
-0.164088 0.328886 -0.159651
-0.162361 0.328886 -0.159651
-0.161081 0.329802 -0.160096
-0.158906 0.328886 -0.159651
-0.156741 0.32797 -0.159207
-0.152853 0.323389 -0.156983
-0.151155 0.323389 -0.156983
-0.14988 0.324305 -0.157428
-0.148129 0.32797 -0.159207
-0.113363 0.342627 -0.166322
-0.240216 0.289099 -0.141997
-0.238696 0.289099 -0.141997
-0.237176 0.289099 -0.141997
-0.235655 0.289099 -0.141997
-0.234876 0.290014 -0.142447
-0.235992 0.299163 -0.14694
-0.235136 0.300078 -0.14739
-0.233557 0.300078 -0.14739
-0.231979 0.300078 -0.14739
-0.227582 0.322949 -0.158624
-0.225883 0.322949 -0.158624
-0.225455 0.324779 -0.159522
-0.228919 0.334843 -0.164465
-0.227779 0.335758 -0.164915
-0.224166 0.333013 -0.163567
-0.222415 0.333013 -0.163567
-0.220057 0.332098 -0.163117
-0.217108 0.330268 -0.162219
-0.215371 0.330268 -0.162219
-0.214226 0.331183 -0.162668
-0.207259 0.331183 -0.162668
-0.20495 0.330268 -0.162219
-0.20265 0.329354 -0.161769
-0.20036 0.328439 -0.16132
-0.198079 0.327524 -0.16087
-0.196905 0.328439 -0.16132
-0.196265 0.330268 -0.162219
-0.195067 0.331183 -0.162668
-0.189318 0.330268 -0.162219
-0.186542 0.328439 -0.16132
-0.184815 0.328439 -0.16132
-0.182067 0.326609 -0.160421
-0.18035 0.326609 -0.160421
-0.179133 0.327524 -0.16087
-0.17741 0.327524 -0.16087
-0.175688 0.327524 -0.16087
-0.173965 0.327524 -0.16087
-0.172243 0.327524 -0.16087
-0.17052 0.327524 -0.16087
-0.166609 0.326609 -0.160421
-0.164891 0.326609 -0.160421
-0.163631 0.327524 -0.16087
-0.161456 0.326609 -0.160421
-0.159738 0.326609 -0.160421
-0.158021 0.326609 -0.160421
-0.150727 0.322035 -0.158174
-0.149457 0.322949 -0.158624
-0.148177 0.323864 -0.159073
-0.147301 0.325694 -0.159972
-0.147109 0.358629 -0.176149
-0.144852 0.357714 -0.175699
-0.143337 0.358629 -0.176149
-0.240216 0.288706 -0.143466
-0.238696 0.288706 -0.143466
-0.237176 0.288706 -0.143466
-0.235655 0.288706 -0.143466
-0.234876 0.289619 -0.14392
-0.227582 0.32251 -0.160264
-0.225244 0.321596 -0.15981
-0.222915 0.320683 -0.159356
-0.220596 0.319769 -0.158902
-0.222814 0.327992 -0.162988
-0.22355 0.331646 -0.164804
-0.221804 0.331646 -0.164804
-0.212898 0.323423 -0.160718
-0.210598 0.32251 -0.160264
-0.2089 0.32251 -0.160264
-0.207788 0.323423 -0.160718
-0.206667 0.324337 -0.161172
-0.206114 0.326164 -0.16208
-0.203824 0.325251 -0.161626
-0.202111 0.325251 -0.161626
-0.201524 0.327078 -0.162534
-0.199802 0.327078 -0.162534
-0.197526 0.326164 -0.16208
-0.19526 0.325251 -0.161626
-0.193003 0.324337 -0.161172
-0.191834 0.325251 -0.161626
-0.191724 0.327992 -0.162988
-0.189996 0.327992 -0.162988
-0.188269 0.327992 -0.162988
-0.186022 0.327078 -0.162534
-0.183785 0.326164 -0.16208
-0.181557 0.325251 -0.161626
-0.179339 0.324337 -0.161172
-0.178132 0.325251 -0.161626
-0.176419 0.325251 -0.161626
-0.174706 0.325251 -0.161626
-0.170799 0.324337 -0.161172
-0.169091 0.324337 -0.161172
-0.167383 0.324337 -0.161172
-0.165675 0.324337 -0.161172
-0.151155 0.32251 -0.160264
-0.149457 0.32251 -0.160264
-0.147758 0.32251 -0.160264
-0.146474 0.323423 -0.160718
-0.148615 0.357228 -0.177516
-0.147109 0.358141 -0.17797
-0.145223 0.358141 -0.17797
-0.14224 0.3554 -0.176608
-0.140368 0.3554 -0.176608
-0.138497 0.3554 -0.176608
-0.240216 0.288312 -0.144935
-0.23794 0.2874 -0.144476
-0.236425 0.2874 -0.144476
-0.235655 0.288312 -0.144935
-0.235617 0.290137 -0.145852
-0.236295 0.292874 -0.147228
-0.238407 0.297436 -0.149521
-0.239018 0.300173 -0.150897
-0.230055 0.313859 -0.157777
-0.226937 0.321158 -0.161446
-0.225244 0.321158 -0.161446
-0.222915 0.320246 -0.160987
-0.221226 0.320246 -0.160987
-0.220163 0.321158 -0.161446
-0.21909 0.32207 -0.161905
-0.21616 0.320246 -0.160987
-0.215693 0.32207 -0.161905
-0.212176 0.319333 -0.160529
-0.209405 0.320246 -0.160987
-0.208308 0.321158 -0.161446
-0.207201 0.32207 -0.161905
-0.206085 0.322983 -0.162363
-0.203805 0.32207 -0.161905
-0.202106 0.32207 -0.161905
-0.200408 0.32207 -0.161905
-0.199835 0.323895 -0.162822
-0.198685 0.324807 -0.163281
-0.197526 0.32572 -0.163739
-0.19526 0.324807 -0.163281
-0.193003 0.323895 -0.162822
-0.192373 0.32572 -0.163739
-0.191724 0.327545 -0.164657
-0.188938 0.32572 -0.163739
-0.187745 0.326632 -0.164198
-0.186022 0.326632 -0.164198
-0.1843 0.326632 -0.164198
-0.181047 0.323895 -0.162822
-0.179339 0.323895 -0.162822
-0.177631 0.323895 -0.162822
-0.149457 0.32207 -0.161905
-0.147758 0.32207 -0.161905
-0.14606 0.32207 -0.161905
-0.150881 0.357653 -0.179792
-0.148995 0.357653 -0.179792
-0.147109 0.357653 -0.179792
-0.144852 0.356741 -0.179334
-0.142971 0.356741 -0.179334
-0.140729 0.355828 -0.178875
-0.238696 0.287919 -0.146403
-0.237926 0.28883 -0.146866
-0.237147 0.289741 -0.14733
-0.236358 0.290652 -0.147793
-0.236295 0.292474 -0.14872
-0.236945 0.295208 -0.150109
-0.226292 0.319808 -0.162619
-0.224604 0.319808 -0.162619
-0.222915 0.319808 -0.162619
-0.221226 0.319808 -0.162619
-0.219537 0.319808 -0.162619
-0.218469 0.32072 -0.163082
-0.21616 0.319808 -0.162619
-0.214471 0.319808 -0.162619
-0.212176 0.318897 -0.162155
-0.211695 0.32072 -0.163082
-0.209405 0.319808 -0.162619
-0.207716 0.319808 -0.162619
-0.206614 0.32072 -0.163082
-0.204921 0.32072 -0.163082
-0.203805 0.321631 -0.163545
-0.202106 0.321631 -0.163545
-0.200408 0.321631 -0.163545
-0.19871 0.321631 -0.163545
-0.197569 0.322542 -0.164008
-0.196419 0.323453 -0.164472
-0.194163 0.322542 -0.164008
-0.193547 0.324364 -0.164935
-0.192912 0.326186 -0.165862
-0.190121 0.324364 -0.164935
-0.188938 0.325275 -0.165398
-0.148177 0.322542 -0.164008
-0.150881 0.357165 -0.181614
-0.148995 0.357165 -0.181614
-0.144852 0.356254 -0.181151
-0.142971 0.356254 -0.181151
-0.141451 0.357165 -0.181614
-0.239451 0.288435 -0.14834
-0.237926 0.288435 -0.14834
-0.237147 0.289345 -0.148807
-0.224767 0.310272 -0.15957
-0.223781 0.311182 -0.160038
-0.223435 0.313002 -0.160974
-0.223714 0.315732 -0.162378
-0.222915 0.319371 -0.16425
-0.220596 0.318461 -0.163782
-0.219537 0.319371 -0.16425
-0.217228 0.318461 -0.163782
-0.213697 0.315732 -0.162378
-0.212638 0.316642 -0.162846
-0.204339 0.319371 -0.16425
-0.203227 0.320281 -0.164718
-0.202106 0.321191 -0.165186
-0.200408 0.321191 -0.165186
-0.197569 0.322101 -0.165654
-0.197526 0.324831 -0.167057
-0.239451 0.28804 -0.149813
-0.236401 0.28804 -0.149813
-0.231614 0.30167 -0.156902
-0.229324 0.300761 -0.156429
-0.225744 0.308939 -0.160682
-0.224108 0.308939 -0.160682
-0.222472 0.308939 -0.160682
-0.220187 0.308031 -0.16021
-0.219845 0.309848 -0.161155
-0.218845 0.310756 -0.161628
-0.217199 0.310756 -0.161628
-0.214923 0.309848 -0.161155
-0.212657 0.308939 -0.160682
-0.211022 0.308939 -0.160682
-0.209386 0.308939 -0.160682
-0.201534 0.319843 -0.166354
-0.200408 0.320752 -0.166826
-0.19871 0.320752 -0.166826
-0.198127 0.322569 -0.167771
-0.197526 0.324386 -0.168717
-0.196905 0.326203 -0.169662
-0.148596 0.322569 -0.167771
-0.147715 0.324386 -0.168717
-0.146406 0.325295 -0.169189
-0.230218 0.299442 -0.15749
-0.229324 0.300349 -0.157967
-0.224416 0.306701 -0.161308
-0.22279 0.306701 -0.161308
-0.221818 0.307608 -0.161785
-0.220836 0.308516 -0.162263
-0.219845 0.309423 -0.16274
-0.217565 0.308516 -0.162263
-0.215929 0.308516 -0.162263
-0.214293 0.308516 -0.162263
-0.212032 0.307608 -0.161785
-0.20978 0.306701 -0.161308
-0.207538 0.305794 -0.160831
-0.207139 0.307608 -0.161785
-0.200408 0.320312 -0.168467
-0.199272 0.321219 -0.168944
-0.198685 0.323034 -0.169898
-0.198079 0.324849 -0.170853
-0.196905 0.325756 -0.17133
-0.149014 0.323034 -0.169898
-0.148129 0.324849 -0.170853
-0.146406 0.324849 -0.170853
-0.144684 0.324849 -0.170853
-0.22203 0.300843 -0.159987
-0.217267 0.305374 -0.162397
-0.215645 0.305374 -0.162397
-0.214659 0.30628 -0.162879
-0.213033 0.30628 -0.162879
-0.210781 0.305374 -0.162397
-0.20916 0.305374 -0.162397
-0.208154 0.30628 -0.162879
-0.206528 0.30628 -0.162879
-0.199272 0.320779 -0.170589
-0.198685 0.322591 -0.171553
-0.197526 0.323497 -0.172035
-0.148543 0.325309 -0.172999
-0.146406 0.324403 -0.172517
-0.144684 0.324403 -0.172517
-0.228823 0.29681 -0.159584
-0.217517 0.29862 -0.160557
-0.215929 0.29862 -0.160557
-0.214341 0.29862 -0.160557
-0.210526 0.297715 -0.160071
-0.210213 0.299525 -0.161044
-0.209881 0.301335 -0.162017
-0.208905 0.30224 -0.162503
-0.208539 0.304049 -0.163477
-0.206922 0.304049 -0.163477
-0.199244 0.323052 -0.173694
-0.161081 0.325767 -0.175153
-0.159791 0.326672 -0.17564
-0.157617 0.325767 -0.175153
-0.155019 0.323957 -0.17418
-0.15244 0.322148 -0.173207
-0.150727 0.322148 -0.173207
-0.149433 0.323052 -0.173694
-0.148129 0.323957 -0.17418
-0.145997 0.323052 -0.173694
-0.14428 0.323052 -0.173694
-0.142562 0.323052 -0.173694
-0.227245 0.296402 -0.161109
-0.222511 0.296402 -0.161109
-0.217113 0.295498 -0.160617
-0.216858 0.297305 -0.1616
-0.215275 0.297305 -0.1616
-0.213042 0.296402 -0.161109
-0.211464 0.296402 -0.161109
-0.210526 0.297305 -0.1616
-0.209578 0.298209 -0.162091
-0.208621 0.299113 -0.162582
-0.207654 0.300016 -0.163073
-0.202087 0.324415 -0.176335
-0.200918 0.325319 -0.176826
-0.199186 0.325319 -0.176826
-0.197454 0.325319 -0.176826
-0.196265 0.326223 -0.177318
-0.187581 0.326223 -0.177318
-0.158906 0.324415 -0.176335
-0.157179 0.324415 -0.176335
-0.155019 0.323512 -0.175844
-0.153296 0.323512 -0.175844
-0.151574 0.323512 -0.175844
-0.149851 0.323512 -0.175844
-0.148129 0.323512 -0.175844
-0.146406 0.323512 -0.175844
-0.14428 0.322608 -0.175353
-0.142962 0.323512 -0.175844
-0.125025 0.330741 -0.179774
-0.233933 0.290579 -0.159658
-0.231662 0.289676 -0.159162
-0.224979 0.295091 -0.162137
-0.220476 0.293286 -0.161145
-0.216218 0.289676 -0.159162
-0.214673 0.289676 -0.159162
-0.213793 0.290579 -0.159658
-0.213562 0.292384 -0.16065
-0.213312 0.294188 -0.161641
-0.211743 0.294188 -0.161641
-0.210819 0.295091 -0.162137
-0.209246 0.295091 -0.162137
-0.208308 0.295993 -0.162633
-0.20736 0.296896 -0.163129
-0.205152 0.295993 -0.162633
-0.203574 0.295993 -0.162633
-0.20138 0.295091 -0.162137
-0.202087 0.323968 -0.178004
-0.20036 0.323968 -0.178004
-0.198633 0.323968 -0.178004
-0.196357 0.323066 -0.177508
-0.194634 0.323066 -0.177508
-0.192373 0.322163 -0.177012
-0.190655 0.322163 -0.177012
-0.1843 0.323066 -0.177508
-0.182577 0.323066 -0.177508
-0.180855 0.323066 -0.177508
-0.179133 0.323066 -0.177508
-0.17741 0.323066 -0.177508
-0.175688 0.323066 -0.177508
-0.174451 0.323968 -0.178004
-0.172724 0.323968 -0.178004
-0.170997 0.323968 -0.178004
-0.169269 0.323968 -0.178004
-0.167542 0.323968 -0.178004
-0.165815 0.323968 -0.178004
-0.164088 0.323968 -0.178004
-0.162361 0.323968 -0.178004
-0.160633 0.323968 -0.178004
-0.158906 0.323968 -0.178004
-0.157179 0.323968 -0.178004
-0.155019 0.323066 -0.177508
-0.153296 0.323066 -0.177508
-0.151574 0.323066 -0.177508
-0.149433 0.322163 -0.177012
-0.147301 0.321261 -0.176516
-0.145588 0.321261 -0.176516
-0.143876 0.321261 -0.176516
-0.142562 0.322163 -0.177012
-0.131636 0.324871 -0.1785
-0.129543 0.323968 -0.178004
-0.127816 0.323968 -0.178004
-0.126088 0.323968 -0.178004
-0.124708 0.324871 -0.1785
-0.121171 0.329383 -0.180979
-0.233206 0.289277 -0.160654
-0.222227 0.291079 -0.161655
-0.220673 0.291079 -0.161655
-0.21844 0.290178 -0.161154
-0.216891 0.290178 -0.161154
-0.214673 0.289277 -0.160654
-0.213793 0.290178 -0.161154
-0.212244 0.290178 -0.161154
-0.211349 0.291079 -0.161655
-0.211094 0.292881 -0.162656
-0.208241 0.291079 -0.161655
-0.202332 0.293782 -0.163156
-0.200764 0.293782 -0.163156
-0.199195 0.293782 -0.163156
-0.201524 0.32262 -0.179172
-0.199802 0.32262 -0.179172
-0.197526 0.321719 -0.178671
-0.195808 0.321719 -0.178671
-0.194634 0.32262 -0.179172
-0.192373 0.321719 -0.178671
-0.190121 0.320818 -0.178171
-0.189467 0.32262 -0.179172
-0.187745 0.32262 -0.179172
-0.186022 0.32262 -0.179172
-0.1843 0.32262 -0.179172
-0.182577 0.32262 -0.179172
-0.180855 0.32262 -0.179172
-0.179133 0.32262 -0.179172
-0.177906 0.323521 -0.179672
-0.176178 0.323521 -0.179672
-0.174451 0.323521 -0.179672
-0.172724 0.323521 -0.179672
-0.170997 0.323521 -0.179672
-0.169269 0.323521 -0.179672
-0.167076 0.32262 -0.179172
-0.165353 0.32262 -0.179172
-0.163631 0.32262 -0.179172
-0.162361 0.323521 -0.179672
-0.160633 0.323521 -0.179672
-0.158463 0.32262 -0.179172
-0.156741 0.32262 -0.179172
-0.154586 0.321719 -0.178671
-0.153296 0.32262 -0.179172
-0.15115 0.321719 -0.178671
-0.149014 0.320818 -0.178171
-0.146888 0.319916 -0.17767
-0.14518 0.319916 -0.17767
-0.143876 0.320818 -0.178171
-0.142163 0.320818 -0.178171
-0.141239 0.32262 -0.179172
-0.139906 0.323521 -0.179672
-0.13127 0.323521 -0.179672
-0.129182 0.32262 -0.179172
-0.12746 0.32262 -0.179172
-0.126088 0.323521 -0.179672
-0.124361 0.323521 -0.179672
-0.123317 0.325324 -0.180673
-0.226889 0.290677 -0.163156
-0.22673 0.292477 -0.164166
-0.223781 0.290677 -0.163156
-0.220851 0.288877 -0.162146
-0.21999 0.289777 -0.162651
-0.21844 0.289777 -0.162651
-0.216891 0.289777 -0.162651
-0.215342 0.289777 -0.162651
-0.213793 0.289777 -0.162651
-0.212903 0.290677 -0.163156
-0.211349 0.290677 -0.163156
-0.209795 0.290677 -0.163156
-0.207596 0.289777 -0.162651
-0.205407 0.288877 -0.162146
-0.201524 0.322174 -0.180835
-0.199802 0.322174 -0.180835
-0.198079 0.322174 -0.180835
-0.196357 0.322174 -0.180835
-0.194634 0.322174 -0.180835
-0.192912 0.322174 -0.180835
-0.18035 0.321274 -0.18033
-0.178632 0.321274 -0.18033
-0.17741 0.322174 -0.180835
-0.175688 0.322174 -0.180835
-0.174451 0.323074 -0.18134
-0.172724 0.323074 -0.18134
-0.170997 0.323074 -0.18134
-0.168798 0.322174 -0.180835
-0.167076 0.322174 -0.180835
-0.165353 0.322174 -0.180835
-0.163631 0.322174 -0.180835
-0.161908 0.322174 -0.180835
-0.160186 0.322174 -0.180835
-0.158463 0.322174 -0.180835
-0.156741 0.322174 -0.180835
-0.155019 0.322174 -0.180835
-0.153296 0.322174 -0.180835
-0.150727 0.320374 -0.179825
-0.148596 0.319474 -0.17932
-0.146888 0.319474 -0.17932
-0.14518 0.319474 -0.17932
-0.143472 0.319474 -0.17932
-0.142163 0.320374 -0.179825
-0.141239 0.322174 -0.180835
-0.139906 0.323074 -0.18134
-0.134725 0.323074 -0.18134
-0.130905 0.322174 -0.180835
-0.12846 0.320374 -0.179825
-0.126748 0.320374 -0.179825
-0.125386 0.321274 -0.18033
-0.124361 0.323074 -0.18134
-0.123317 0.324874 -0.182351
-0.22394 0.288477 -0.163637
-0.222395 0.288477 -0.163637
-0.220163 0.287578 -0.163128
-0.218623 0.287578 -0.163128
-0.217084 0.287578 -0.163128
-0.215544 0.287578 -0.163128
-0.214004 0.287578 -0.163128
-0.213129 0.288477 -0.163637
-0.211584 0.288477 -0.163637
-0.209386 0.287578 -0.163128
-0.207197 0.28668 -0.162618
-0.206306 0.287578 -0.163128
-0.204127 0.28668 -0.162618
-0.202592 0.28668 -0.162618
-0.200427 0.285781 -0.162108
-0.200961 0.32083 -0.181989
-0.198685 0.319931 -0.18148
-0.196419 0.319032 -0.18097
-0.194711 0.319032 -0.18097
-0.193547 0.319931 -0.18148
-0.177131 0.318134 -0.18046
-0.175923 0.319032 -0.18097
-0.175197 0.32083 -0.181989
-0.173479 0.32083 -0.181989
-0.171762 0.32083 -0.181989
-0.170044 0.32083 -0.181989
-0.168326 0.32083 -0.181989
-0.166609 0.32083 -0.181989
-0.159738 0.32083 -0.181989
-0.157578 0.319931 -0.18148
-0.156303 0.32083 -0.181989
-0.154586 0.32083 -0.181989
-0.152868 0.32083 -0.181989
-0.150304 0.319032 -0.18097
-0.148177 0.318134 -0.18046
-0.146888 0.319032 -0.18097
-0.14518 0.319032 -0.18097
-0.143472 0.319032 -0.18097
-0.142163 0.319931 -0.18148
-0.141239 0.321728 -0.182499
-0.139517 0.321728 -0.182499
-0.137024 0.319931 -0.18148
-0.135312 0.319931 -0.18148
-0.132848 0.318134 -0.18046
-0.129808 0.319032 -0.18097
-0.1281 0.319032 -0.18097
-0.126392 0.319032 -0.18097
-0.124684 0.319032 -0.18097
-0.123668 0.32083 -0.181989
-0.227736 0.288975 -0.165644
-0.225484 0.288077 -0.165129
-0.22394 0.288077 -0.165129
-0.221702 0.28718 -0.164615
-0.219475 0.286283 -0.1641
-0.21794 0.286283 -0.1641
-0.216405 0.286283 -0.1641
-0.214871 0.286283 -0.1641
-0.213336 0.286283 -0.1641
-0.211801 0.286283 -0.1641
-0.210266 0.286283 -0.1641
-0.208731 0.286283 -0.1641
-0.207197 0.286283 -0.1641
-0.205662 0.286283 -0.1641
-0.203227 0.28718 -0.164615
-0.200427 0.285385 -0.163586
-0.198897 0.285385 -0.163586
-0.172507 0.31859 -0.18262
-0.170799 0.31859 -0.18262
-0.169091 0.31859 -0.18262
-0.157578 0.319488 -0.183134
-0.154586 0.320385 -0.183648
-0.15244 0.319488 -0.183134
-0.150304 0.31859 -0.18262
-0.147758 0.316795 -0.181591
-0.143067 0.317693 -0.182105
-0.140965 0.316795 -0.181591
-0.139267 0.316795 -0.181591
-0.137568 0.316795 -0.181591
-0.13587 0.316795 -0.181591
-0.132098 0.315898 -0.181076
-0.129076 0.316795 -0.181591
-0.127378 0.316795 -0.181591
-0.126036 0.317693 -0.182105
-0.124332 0.317693 -0.182105
-0.227029 0.287678 -0.166621
-0.225484 0.287678 -0.166621
-0.22394 0.287678 -0.166621
-0.222395 0.287678 -0.166621
-0.21794 0.285885 -0.165583
-0.215727 0.284989 -0.165064
-0.214197 0.284989 -0.165064
-0.212667 0.284989 -0.165064
-0.211137 0.284989 -0.165064
-0.208948 0.284093 -0.164545
-0.208077 0.284989 -0.165064
-0.207197 0.285885 -0.165583
-0.205662 0.285885 -0.165583
-0.204127 0.285885 -0.165583
-0.203227 0.286781 -0.166102
-0.154153 0.319044 -0.184788
-0.152012 0.318148 -0.184269
-0.149457 0.316356 -0.183231
-0.147758 0.316356 -0.183231
-0.14606 0.316356 -0.183231
-0.144362 0.316356 -0.183231
-0.142259 0.31546 -0.182712
-0.140166 0.314563 -0.182193
-0.138477 0.314563 -0.182193
-0.136789 0.314563 -0.182193
-0.230709 0.289963 -0.169684
-0.228443 0.289068 -0.16916
-0.226187 0.288173 -0.168637
-0.22673 0.290858 -0.170208
-0.226552 0.292648 -0.171255
-0.217113 0.292648 -0.171255
-0.204497 0.288173 -0.168637
-0.202948 0.288173 -0.168637
-0.202024 0.289068 -0.16916
-0.151583 0.316811 -0.185395
-0.149457 0.315916 -0.184872
-0.14734 0.315021 -0.184348
-0.145646 0.315021 -0.184348
-0.143953 0.315021 -0.184348
-0.141855 0.314126 -0.183824
-0.139767 0.313231 -0.183301
-0.138083 0.313231 -0.183301
-0.136009 0.312336 -0.182777
-0.134715 0.313231 -0.183301
-0.229997 0.288666 -0.170661
-0.227736 0.287772 -0.170133
-0.228294 0.290453 -0.171718
-0.223868 0.294922 -0.17436
-0.217517 0.294922 -0.17436
-0.206687 0.288666 -0.170661
-0.205133 0.288666 -0.170661
-0.204209 0.289559 -0.17119
-0.203275 0.290453 -0.171718
-0.201712 0.290453 -0.171718
-0.200764 0.291347 -0.172246
-0.198584 0.290453 -0.171718
-0.146921 0.313689 -0.185455
-0.136009 0.311902 -0.184399
-0.133945 0.311008 -0.18387
-0.132271 0.311008 -0.18387
-0.130597 0.311008 -0.18387
-0.234659 0.288263 -0.172162
-0.232383 0.287371 -0.171629
-0.230117 0.286479 -0.171096
-0.228573 0.286479 -0.171096
-0.227029 0.286479 -0.171096
-0.224546 0.295403 -0.176426
-0.216583 0.295403 -0.176426
-0.205768 0.289156 -0.172695
-0.203579 0.288263 -0.172162
-0.20265 0.289156 -0.172695
-0.201712 0.290048 -0.173228
-0.200148 0.290048 -0.173228
-0.198584 0.290048 -0.173228
-0.13356 0.309682 -0.184955
-0.131511 0.30879 -0.184422
-0.129471 0.307897 -0.183889
-0.233933 0.28697 -0.173126
-0.231662 0.286079 -0.172588
-0.230117 0.286079 -0.172588
-0.228573 0.286079 -0.172588
-0.227029 0.286079 -0.172588
-0.224546 0.294991 -0.177965
-0.222953 0.294991 -0.177965
-0.22203 0.295882 -0.178502
-0.219494 0.296773 -0.17904
-0.217892 0.296773 -0.17904
-0.207966 0.289644 -0.174739
-0.205768 0.288752 -0.174201
-0.203579 0.287861 -0.173663
-0.20265 0.288752 -0.174201
-0.201091 0.288752 -0.174201
-0.199532 0.288752 -0.174201
-0.198584 0.289644 -0.174739
-0.197627 0.290535 -0.175276
-0.23248 0.284789 -0.173538
-0.23094 0.284789 -0.173538
-0.229401 0.284789 -0.173538
-0.227861 0.284789 -0.173538
-0.227029 0.285679 -0.17408
-0.222953 0.294579 -0.179503
-0.22203 0.295469 -0.180045
-0.217238 0.295469 -0.180045
-0.207966 0.289239 -0.176249
-0.205768 0.288349 -0.175707
-0.204209 0.288349 -0.175707
-0.202024 0.287459 -0.175165
-0.201091 0.288349 -0.175707
-0.199532 0.288349 -0.175707
-0.198584 0.289239 -0.176249
-0.197627 0.290129 -0.176791
-0.19666 0.291019 -0.177334
-0.230218 0.283502 -0.174478
-0.227861 0.284391 -0.175025
-0.224546 0.294167 -0.181041
-0.223627 0.295055 -0.181588
-0.210175 0.289723 -0.178306
-0.207326 0.287946 -0.177213
-0.205768 0.287946 -0.177213
-0.203579 0.287057 -0.176666
-0.202024 0.287057 -0.176666
-0.20047 0.287057 -0.176666
-0.198916 0.287057 -0.176666
-0.197362 0.287057 -0.176666
-0.196415 0.287946 -0.177213
-0.194856 0.287946 -0.177213
-0.23248 0.283992 -0.176512
-0.224546 0.293754 -0.18258
-0.212393 0.290204 -0.180373
-0.210175 0.289317 -0.179822
-0.208606 0.289317 -0.179822
-0.207038 0.289317 -0.179822
-0.204209 0.287542 -0.178718
-0.20265 0.287542 -0.178718
-0.201091 0.287542 -0.178718
-0.199532 0.287542 -0.178718
-0.198584 0.28843 -0.17927
-0.197021 0.28843 -0.17927
-0.196059 0.289317 -0.179822
-0.230218 0.282707 -0.177443
-0.226033 0.287139 -0.180224
-0.215539 0.289797 -0.181893
-0.213312 0.288911 -0.181337
-0.211743 0.288911 -0.181337
-0.20953 0.288025 -0.18078
-0.208606 0.288911 -0.181337
-0.206403 0.288025 -0.18078
-0.204209 0.287139 -0.180224
-0.20265 0.287139 -0.180224
-0.201712 0.288025 -0.18078
-0.199532 0.287139 -0.180224
-0.197973 0.287139 -0.180224
-0.196415 0.287139 -0.180224
-0.195457 0.288025 -0.18078
-0.19449 0.288911 -0.181337
-0.226187 0.284965 -0.180608
-0.224637 0.284965 -0.180608
-0.224474 0.286735 -0.18173
-0.224291 0.288505 -0.182852
-0.214221 0.28762 -0.182291
-0.212657 0.28762 -0.182291
-0.211094 0.28762 -0.182291
-0.20953 0.28762 -0.182291
-0.208606 0.288505 -0.182852
-0.207038 0.288505 -0.182852
-0.204209 0.286735 -0.18173
-0.20265 0.286735 -0.18173
-0.201091 0.286735 -0.18173
-0.199532 0.286735 -0.18173
-0.197973 0.286735 -0.18173
-0.196415 0.286735 -0.18173
-0.195457 0.28762 -0.182291
-0.19449 0.288505 -0.182852
-0.226889 0.285448 -0.18267
-0.225335 0.285448 -0.18267
-0.223781 0.285448 -0.18267
-0.222227 0.285448 -0.18267
-0.222039 0.287215 -0.183801
-0.218912 0.287215 -0.183801
-0.20953 0.287215 -0.183801
-0.207966 0.287215 -0.183801
-0.206403 0.287215 -0.183801
-0.203579 0.285448 -0.18267
-0.202024 0.285448 -0.18267
-0.20047 0.285448 -0.18267
-0.198916 0.285448 -0.18267
-0.197362 0.285448 -0.18267
-0.195808 0.285448 -0.18267
-0.194856 0.286332 -0.183236
-0.225335 0.285046 -0.184171
-0.223088 0.284163 -0.183601
-0.222227 0.285046 -0.184171
-0.21999 0.284163 -0.183601
-0.208885 0.285928 -0.184741
-0.207326 0.285928 -0.184741
-0.206403 0.286811 -0.185311
-0.203579 0.285046 -0.184171
-0.202024 0.285046 -0.184171
-0.20047 0.285046 -0.184171
-0.198916 0.285046 -0.184171
-0.196751 0.284163 -0.183601
-0.195202 0.284163 -0.183601
-0.194254 0.285046 -0.184171
-0.208241 0.284644 -0.185672
-0.206687 0.284644 -0.185672
-0.205133 0.284644 -0.185672
-0.203579 0.284644 -0.185672
-0.202024 0.284644 -0.185672
-0.19985 0.283762 -0.185097
-0.198301 0.283762 -0.185097
-0.196751 0.283762 -0.185097
-0.195202 0.283762 -0.185097
-0.194254 0.284644 -0.185672
-0.204497 0.283361 -0.186594
-0.202948 0.283361 -0.186594
-0.19985 0.283361 -0.186594
-0.196751 0.283361 -0.186594
-0.195202 0.283361 -0.186594
-0.193653 0.283361 -0.186594
