ply
format ascii 1.0
comment Created by Open3D
element vertex 763
property double x
property double y
property double z
end_header
-0.0852361 0.395909 -0.114292
-0.0836581 0.397831 -0.114847
-0.0872184 0.395396 -0.116207
-0.0852361 0.395396 -0.116207
-0.0836581 0.397316 -0.116771
-0.0818635 0.398275 -0.117053
-0.0798668 0.398275 -0.117053
-0.0715337 0.396356 -0.116489
-0.0911829 0.394883 -0.118122
-0.0874301 0.395842 -0.118408
-0.0856499 0.3968 -0.118695
-0.0836581 0.3968 -0.118695
-0.0816662 0.3968 -0.118695
-0.0798668 0.397759 -0.118982
-0.0776825 0.3968 -0.118695
-0.0756906 0.3968 -0.118695
-0.0738768 0.397759 -0.118982
-0.0718801 0.397759 -0.118982
-0.0924867 0.391499 -0.119162
-0.0909615 0.393413 -0.119745
-0.0894171 0.395327 -0.120328
-0.0876418 0.396285 -0.120619
-0.0794819 0.395327 -0.120328
-0.0780578 0.398199 -0.121202
-0.0760563 0.398199 -0.121202
-0.0738768 0.397242 -0.12091
-0.0916255 0.395769 -0.122543
-0.0898501 0.396725 -0.122839
-0.0876418 0.395769 -0.122543
-0.0858568 0.396725 -0.122839
-0.0838601 0.396725 -0.122839
-0.0816662 0.395769 -0.122543
-0.0798668 0.396725 -0.122839
-0.0780578 0.397681 -0.123135
-0.0760563 0.397681 -0.123135
-0.0740548 0.397681 -0.123135
-0.0718801 0.396725 -0.122839
-0.0698834 0.396725 -0.122839
-0.0678868 0.396725 -0.122839
-0.0657313 0.395769 -0.122543
-0.0960711 0.397163 -0.125068
-0.0911829 0.393344 -0.123866
-0.0885511 0.39048 -0.122964
-0.0870067 0.392389 -0.123565
-0.0856499 0.395254 -0.124467
-0.0838601 0.396208 -0.124768
-0.0818635 0.396208 -0.124768
-0.0798668 0.396208 -0.124768
-0.0780578 0.397163 -0.125068
-0.0760563 0.397163 -0.125068
-0.0740548 0.397163 -0.125068
-0.0718801 0.396208 -0.124768
-0.0700518 0.397163 -0.125068
-0.0678868 0.396208 -0.124768
-0.0657313 0.395254 -0.124467
-0.0632776 0.392389 -0.123565
-0.0958401 0.395691 -0.126696
-0.0938435 0.395691 -0.126696
-0.0916255 0.394738 -0.126391
-0.0887676 0.390924 -0.12517
-0.0872184 0.392831 -0.12578
-0.085443 0.393784 -0.126086
-0.0832539 0.392831 -0.12578
-0.0816662 0.394738 -0.126391
-0.0800592 0.396645 -0.127002
-0.0780578 0.396645 -0.127002
-0.0758734 0.395691 -0.126696
-0.0738768 0.395691 -0.126696
-0.0720533 0.396645 -0.127002
-0.0702202 0.397598 -0.127307
-0.0660489 0.396645 -0.127002
-0.0635855 0.393784 -0.126086
-0.0951473 0.392318 -0.127695
-0.0931651 0.392318 -0.127695
-0.0909615 0.391366 -0.127385
-0.0885511 0.389461 -0.126765
-0.0865833 0.389461 -0.126765
-0.0846155 0.389461 -0.126765
-0.0828498 0.390414 -0.127075
-0.0812717 0.392318 -0.127695
-0.0796743 0.394222 -0.128315
-0.0778701 0.395175 -0.128625
-0.0738768 0.395175 -0.128625
-0.0718801 0.395175 -0.128625
-0.0698834 0.395175 -0.128625
-0.0678868 0.395175 -0.128625
-0.0658901 0.395175 -0.128625
-0.0638934 0.395175 -0.128625
-0.0931651 0.391805 -0.12961
-0.0914042 0.392756 -0.129924
-0.0892006 0.391805 -0.12961
-0.086795 0.389903 -0.128981
-0.0846155 0.388952 -0.128666
-0.0824456 0.388001 -0.128351
-0.0808771 0.389903 -0.128981
-0.0794819 0.392756 -0.129924
-0.0778701 0.394658 -0.130554
-0.0736988 0.393707 -0.130239
-0.0717069 0.393707 -0.130239
-0.069715 0.393707 -0.130239
-0.0677232 0.393707 -0.130239
-0.0658901 0.394658 -0.130554
-0.0914042 0.392242 -0.131844
-0.0810744 0.390342 -0.131205
-0.0794819 0.392242 -0.131844
-0.0776825 0.393191 -0.132163
-0.0756906 0.393191 -0.132163
-0.0736988 0.393191 -0.132163
-0.0717069 0.393191 -0.132163
-0.069715 0.393191 -0.132163
-0.0677232 0.393191 -0.132163
-0.0657313 0.393191 -0.132163
-0.0632776 0.390342 -0.131205
-0.0613002 0.390342 -0.131205
-0.0980726 0.394573 -0.134735
-0.0918468 0.393624 -0.134411
-0.0880652 0.394573 -0.134735
-0.0796743 0.392676 -0.134087
-0.0778701 0.393624 -0.134411
-0.0760563 0.394573 -0.134735
-0.0740548 0.394573 -0.134735
-0.0720533 0.394573 -0.134735
-0.0702202 0.395521 -0.135059
-0.0680504 0.394573 -0.134735
-0.0660489 0.394573 -0.134735
-0.0640474 0.394573 -0.134735
-0.0620459 0.394573 -0.134735
-0.0976011 0.39216 -0.136011
-0.0958401 0.393108 -0.136339
-0.0940696 0.394055 -0.136668
-0.0916255 0.39216 -0.136011
-0.0896336 0.39216 -0.136011
-0.0878535 0.393108 -0.136339
-0.0860637 0.394055 -0.136668
-0.0840622 0.394055 -0.136668
-0.0818635 0.393108 -0.136339
-0.0798668 0.393108 -0.136339
-0.0778701 0.393108 -0.136339
-0.0758734 0.393108 -0.136339
-0.0738768 0.393108 -0.136339
-0.0718801 0.393108 -0.136339
-0.0698834 0.393108 -0.136339
-0.0677232 0.39216 -0.136011
-0.0657313 0.39216 -0.136011
-0.0638934 0.393108 -0.136339
-0.0614493 0.390266 -0.135354
-0.0991118 0.389753 -0.137269
-0.0951473 0.389753 -0.137269
-0.0936173 0.391645 -0.137935
-0.0911829 0.389753 -0.137269
-0.0887676 0.387861 -0.136602
-0.0872184 0.389753 -0.137269
-0.0856499 0.391645 -0.137935
-0.0816662 0.391645 -0.137935
-0.0796743 0.391645 -0.137935
-0.0778701 0.392591 -0.138268
-0.0758734 0.392591 -0.138268
-0.0738768 0.392591 -0.138268
-0.0720533 0.393537 -0.138601
-0.0698834 0.392591 -0.138268
-0.0675596 0.390699 -0.137602
-0.0654138 0.389753 -0.137269
-0.0635855 0.390699 -0.137602
-0.103784 0.384516 -0.137494
-0.100849 0.388295 -0.138845
-0.0986307 0.38735 -0.138508
-0.0968938 0.388295 -0.138845
-0.0953783 0.390184 -0.139521
-0.0936173 0.391129 -0.139859
-0.0916255 0.391129 -0.139859
-0.0885511 0.386405 -0.13817
-0.086795 0.38735 -0.138508
-0.0848224 0.38735 -0.138508
-0.0828498 0.38735 -0.138508
-0.0810744 0.388295 -0.138845
-0.079097 0.388295 -0.138845
-0.0771196 0.388295 -0.138845
-0.075325 0.38924 -0.139183
-0.0715337 0.390184 -0.139521
-0.069715 0.391129 -0.139859
-0.065255 0.388295 -0.138845
-0.102576 0.38684 -0.140413
-0.100603 0.38684 -0.140413
-0.0986307 0.38684 -0.140413
-0.0966581 0.38684 -0.140413
-0.0946854 0.38684 -0.140413
-0.092939 0.387783 -0.140755
-0.0802854 0.384009 -0.139386
-0.0787121 0.385896 -0.140071
-0.076369 0.384009 -0.139386
-0.0745937 0.384953 -0.139728
-0.0711873 0.387783 -0.140755
-0.0693783 0.388727 -0.141098
-0.067396 0.388727 -0.141098
-0.0650962 0.38684 -0.140413
-0.099131 0.380676 -0.140236
-0.0974279 0.381618 -0.140583
-0.0937617 0.38256 -0.14093
-0.0915822 0.381618 -0.140583
-0.0900763 0.383502 -0.141277
-0.0883346 0.384445 -0.141624
-0.0859482 0.38256 -0.14093
-0.0816373 0.380676 -0.140236
-0.0796936 0.380676 -0.140236
-0.0781347 0.38256 -0.14093
-0.0687047 0.384445 -0.141624
-0.0670689 0.386329 -0.142318
-0.0650962 0.386329 -0.142318
-0.0634315 0.388214 -0.143013
-0.0988857 0.379231 -0.141761
-0.0974279 0.381113 -0.142465
-0.095715 0.382054 -0.142817
-0.0932998 0.380172 -0.142113
-0.0913561 0.380172 -0.142113
-0.0894123 0.380172 -0.142113
-0.0874686 0.380172 -0.142113
-0.0855248 0.380172 -0.142113
-0.0833742 0.379231 -0.141761
-0.0816373 0.380172 -0.142113
-0.0798908 0.381113 -0.142465
-0.0779423 0.381113 -0.142465
-0.0758061 0.380172 -0.142113
-0.0740452 0.381113 -0.142465
-0.0720966 0.381113 -0.142465
-0.0703213 0.382054 -0.142817
-0.0685363 0.382996 -0.143168
-0.0646199 0.382996 -0.143168
-0.0625078 0.382054 -0.142817
-0.060107 0.379231 -0.141761
-0.100074 0.37591 -0.142565
-0.0983949 0.37685 -0.142921
-0.0964656 0.37685 -0.142921
-0.094772 0.37779 -0.143278
-0.0928379 0.37779 -0.143278
-0.0909038 0.37779 -0.143278
-0.0889697 0.37779 -0.143278
-0.0870356 0.37779 -0.143278
-0.0848897 0.37685 -0.142921
-0.0833742 0.37873 -0.143634
-0.0818394 0.380609 -0.144347
-0.0796936 0.379669 -0.143991
-0.0775574 0.37873 -0.143634
-0.0756185 0.37873 -0.143634
-0.0738623 0.379669 -0.143991
-0.0720966 0.380609 -0.144347
-0.0701481 0.380609 -0.144347
-0.0680311 0.379669 -0.143991
-0.0620459 0.37873 -0.143634
-0.060107 0.37873 -0.143634
-0.0995737 0.373535 -0.143702
-0.0983949 0.376351 -0.144785
-0.0964656 0.376351 -0.144785
-0.094772 0.377289 -0.145146
-0.0928379 0.377289 -0.145146
-0.0909038 0.377289 -0.145146
-0.0887484 0.376351 -0.144785
-0.086386 0.374474 -0.144063
-0.0853131 0.378228 -0.145507
-0.0835811 0.379166 -0.145868
-0.0816373 0.379166 -0.145868
-0.0796936 0.379166 -0.145868
-0.0775574 0.378228 -0.145507
-0.0756185 0.378228 -0.145507
-0.0736795 0.378228 -0.145507
-0.0719186 0.379166 -0.145868
-0.0699749 0.379166 -0.145868
-0.0676943 0.377289 -0.145146
-0.0651059 0.373535 -0.143702
-0.0630322 0.372597 -0.143341
-0.0614301 0.374474 -0.144063
-0.0590629 0.371658 -0.14298
-0.100469 0.36929 -0.144089
-0.0988231 0.370228 -0.144454
-0.0976588 0.37304 -0.145551
-0.0959845 0.373977 -0.145917
-0.0943005 0.374914 -0.146283
-0.0921451 0.373977 -0.145917
-0.0904515 0.374914 -0.146283
-0.088527 0.374914 -0.146283
-0.0853131 0.377726 -0.14738
-0.0794963 0.377726 -0.14738
-0.0677232 0.366479 -0.142992
-0.0644515 0.36929 -0.144089
-0.0627147 0.370228 -0.144454
-0.0608142 0.370228 -0.144454
-0.0587646 0.36929 -0.144089
-0.0570133 0.370228 -0.144454
-0.100546 0.362247 -0.143327
-0.0978224 0.365992 -0.144809
-0.0961866 0.366928 -0.145179
-0.0945411 0.367864 -0.145549
-0.0926503 0.367864 -0.145549
-0.0694264 0.365056 -0.144438
-0.0673768 0.36412 -0.144068
-0.065842 0.365992 -0.144809
-0.0639608 0.365992 -0.144809
-0.0620796 0.365992 -0.144809
-0.0601984 0.365992 -0.144809
-0.0583172 0.365992 -0.144809
-0.0567247 0.367864 -0.145549
-0.100026 0.359896 -0.144376
-0.0981736 0.359896 -0.144376
-0.0930977 0.361766 -0.145126
-0.0917073 0.363635 -0.145876
-0.0905285 0.36644 -0.147001
-0.0670304 0.361766 -0.145126
-0.0653368 0.3627 -0.145501
-0.06347 0.3627 -0.145501
-0.0616033 0.3627 -0.145501
-0.0597365 0.3627 -0.145501
-0.0580189 0.363635 -0.145876
-0.0997661 0.358483 -0.145785
-0.0979186 0.358483 -0.145785
-0.0958209 0.357549 -0.145406
-0.0942236 0.358483 -0.145785
-0.0926166 0.359417 -0.146165
-0.0912358 0.361284 -0.146924
-0.0902976 0.365018 -0.148443
-0.0886425 0.365951 -0.148822
-0.0865352 0.365018 -0.148443
-0.0848705 0.365951 -0.148822
-0.0829845 0.365951 -0.148822
-0.0808916 0.365018 -0.148443
-0.0790104 0.365018 -0.148443
-0.0771292 0.365018 -0.148443
-0.0733668 0.365018 -0.148443
-0.0709371 0.362217 -0.147304
-0.0688923 0.361284 -0.146924
-0.0670304 0.361284 -0.146924
-0.0651684 0.361284 -0.146924
-0.0633065 0.361284 -0.146924
-0.0612857 0.36035 -0.146545
-0.0595825 0.361284 -0.146924
-0.0575714 0.36035 -0.146545
-0.0995063 0.357073 -0.147186
-0.0976636 0.357073 -0.147186
-0.0958209 0.357073 -0.147186
-0.0939782 0.357073 -0.147186
-0.092376 0.358005 -0.14757
-0.091 0.359869 -0.148338
-0.0896048 0.361734 -0.149107
-0.0884164 0.364531 -0.15026
-0.0865352 0.364531 -0.15026
-0.085087 0.366396 -0.151029
-0.0831962 0.366396 -0.151029
-0.0810985 0.365463 -0.150644
-0.0784042 0.361734 -0.149107
-0.0769319 0.363599 -0.149876
-0.075248 0.364531 -0.15026
-0.0731791 0.363599 -0.149876
-0.0714856 0.364531 -0.15026
-0.0692484 0.362666 -0.149491
-0.0670304 0.360802 -0.148723
-0.0651684 0.360802 -0.148723
-0.0631429 0.359869 -0.148338
-0.0612857 0.359869 -0.148338
-0.0594286 0.359869 -0.148338
-0.0574223 0.358937 -0.147954
-0.0995063 0.356596 -0.148965
-0.0976636 0.356596 -0.148965
-0.0958209 0.356596 -0.148965
-0.0939782 0.356596 -0.148965
-0.092376 0.357527 -0.149354
-0.091 0.359389 -0.150132
-0.0900666 0.363113 -0.151688
-0.0890948 0.366837 -0.153244
-0.0876418 0.368699 -0.154022
-0.08552 0.367768 -0.153633
-0.0838313 0.368699 -0.154022
-0.0792125 0.364975 -0.152466
-0.0771292 0.364044 -0.152077
-0.075248 0.364044 -0.152077
-0.0733668 0.364044 -0.152077
-0.0714856 0.364044 -0.152077
-0.0692484 0.362182 -0.151299
-0.0670304 0.36032 -0.150521
-0.0646632 0.357527 -0.149354
-0.0626521 0.356596 -0.148965
-0.0608094 0.356596 -0.148965
-0.0589667 0.356596 -0.148965
-0.0572731 0.357527 -0.149354
-0.0557143 0.359389 -0.150132
-0.0542757 0.362182 -0.151299
-0.0989867 0.354259 -0.149958
-0.0974086 0.355189 -0.150352
-0.0958209 0.356119 -0.150745
-0.0942236 0.357048 -0.151139
-0.092376 0.357048 -0.151139
-0.0907643 0.357978 -0.151533
-0.0896048 0.360768 -0.152713
-0.0886425 0.364487 -0.154288
-0.0871991 0.366347 -0.155075
-0.085087 0.365417 -0.154681
-0.0829845 0.364487 -0.154288
-0.0815122 0.366347 -0.155075
-0.0796166 0.366347 -0.155075
-0.0771292 0.363557 -0.153894
-0.075248 0.363557 -0.153894
-0.0733668 0.363557 -0.153894
-0.0714856 0.363557 -0.153894
-0.0670304 0.359838 -0.15232
-0.065 0.358908 -0.151926
-0.0629793 0.357978 -0.151533
-0.061127 0.357978 -0.151533
-0.0594286 0.358908 -0.151926
-0.0575714 0.358908 -0.151926
-0.0558586 0.359838 -0.15232
-0.0541362 0.360768 -0.152713
-0.0989867 0.353785 -0.151729
-0.0971536 0.353785 -0.151729
-0.0955707 0.354713 -0.152127
-0.0942236 0.35657 -0.152924
-0.0926166 0.357499 -0.153322
-0.0912358 0.359356 -0.154118
-0.0898357 0.361213 -0.154915
-0.0884164 0.36307 -0.155711
-0.0865352 0.36307 -0.155711
-0.0728039 0.360285 -0.154517
-0.0670304 0.359356 -0.154118
-0.0648316 0.357499 -0.153322
-0.0992465 0.354237 -0.153902
-0.0974086 0.354237 -0.153902
-0.0950703 0.352383 -0.153097
-0.0929967 0.351456 -0.152694
-0.0911732 0.351456 -0.152694
-0.0895855 0.352383 -0.153097
-0.0879882 0.35331 -0.153499
-0.0866073 0.355165 -0.154305
-0.0845433 0.354237 -0.153902
-0.0827054 0.354237 -0.153902
-0.0790296 0.354237 -0.153902
-0.0773938 0.355165 -0.154305
-0.0733235 0.35331 -0.153499
-0.0718657 0.355165 -0.154305
-0.0702058 0.356092 -0.154708
-0.0683583 0.356092 -0.154708
-0.0661643 0.354237 -0.153902
-0.0638213 0.351456 -0.152694
-0.0619978 0.351456 -0.152694
-0.05557 0.357019 -0.155111
-0.0968986 0.35191 -0.154863
-0.0948202 0.350984 -0.154455
-0.0927513 0.350057 -0.154047
-0.0909327 0.350057 -0.154047
-0.089114 0.350057 -0.154047
-0.0875263 0.350984 -0.154455
-0.0854767 0.350057 -0.154047
-0.0836581 0.350057 -0.154047
-0.0816229 0.349131 -0.15364
-0.0798091 0.349131 -0.15364
-0.0779952 0.349131 -0.15364
-0.0761814 0.349131 -0.15364
-0.0741703 0.348205 -0.153232
-0.0723612 0.348205 -0.153232
-0.0707398 0.349131 -0.15364
-0.0692917 0.350984 -0.154455
-0.0672902 0.350057 -0.154047
-0.0654715 0.350057 -0.154047
-0.0636529 0.350057 -0.154047
-0.0459378 0.401918 -0.176869
-0.0438498 0.401918 -0.176869
-0.0963886 0.349587 -0.155804
-0.0948202 0.350512 -0.156216
-0.0927513 0.349587 -0.155804
-0.0909327 0.349587 -0.155804
-0.089114 0.349587 -0.155804
-0.0872954 0.349587 -0.155804
-0.0852506 0.348662 -0.155392
-0.0832154 0.347737 -0.15498
-0.0814064 0.347737 -0.15498
-0.0795974 0.347737 -0.15498
-0.0777883 0.347737 -0.15498
-0.0759793 0.347737 -0.15498
-0.0741703 0.347737 -0.15498
-0.0723612 0.347737 -0.15498
-0.0705522 0.347737 -0.15498
-0.068926 0.348662 -0.155392
-0.0671122 0.348662 -0.155392
-0.0652983 0.348662 -0.155392
-0.0634845 0.348662 -0.155392
-0.0618342 0.349587 -0.155804
-0.0475833 0.397678 -0.177238
-0.0455144 0.397678 -0.177238
-0.0434456 0.397678 -0.177238
-0.0413768 0.397678 -0.177238
-0.0393079 0.397678 -0.177238
-0.0372391 0.397678 -0.177238
-0.0963886 0.349116 -0.157561
-0.0948202 0.35004 -0.157978
-0.0932421 0.350963 -0.158395
-0.0916544 0.351887 -0.158811
-0.0895855 0.350963 -0.158395
-0.0879882 0.351887 -0.158811
-0.0829941 0.346345 -0.15631
-0.0814064 0.347269 -0.156727
-0.0798091 0.348193 -0.157144
-0.0782021 0.349116 -0.157561
-0.0761814 0.348193 -0.157144
-0.0743675 0.348193 -0.157144
-0.0723612 0.347269 -0.156727
-0.0705522 0.347269 -0.156727
-0.0687432 0.347269 -0.156727
-0.0671122 0.348193 -0.157144
-0.0654715 0.349116 -0.157561
-0.0638213 0.35004 -0.157978
-0.0624885 0.35281 -0.159228
-0.0604919 0.351887 -0.158811
-0.0471406 0.393448 -0.177569
-0.0450911 0.393448 -0.177569
-0.0979475 0.347723 -0.158896
-0.0948202 0.349568 -0.159739
-0.0934874 0.351412 -0.160582
-0.0916544 0.351412 -0.160582
-0.0681947 0.344034 -0.15721
-0.0669341 0.346801 -0.158475
-0.0654715 0.348645 -0.159318
-0.0639897 0.35049 -0.16016
-0.0621614 0.35049 -0.16016
-0.0598568 0.347723 -0.158896
-0.057889 0.346801 -0.158475
-0.0568257 0.351412 -0.160582
-0.0488438 0.390151 -0.178284
-0.0468087 0.390151 -0.178284
-0.0447735 0.390151 -0.178284
-0.0427384 0.390151 -0.178284
-0.0407032 0.390151 -0.178284
-0.038668 0.390151 -0.178284
-0.0366329 0.390151 -0.178284
-0.0963886 0.348175 -0.161074
-0.09457 0.348175 -0.161074
-0.0927513 0.348175 -0.161074
-0.0911732 0.349096 -0.1615
-0.0884068 0.345411 -0.159796
-0.0654715 0.348175 -0.161074
-0.0639897 0.350017 -0.161926
-0.0621614 0.350017 -0.161926
-0.0603331 0.350017 -0.161926
-0.0384852 0.387782 -0.179397
-0.0971681 0.344025 -0.161108
-0.0958786 0.345864 -0.161969
-0.0940696 0.345864 -0.161969
-0.0925059 0.346784 -0.1624
-0.0909327 0.347704 -0.162831
-0.0888783 0.346784 -0.1624
-0.0662221 0.342185 -0.160246
-0.0647787 0.344025 -0.161108
-0.0631477 0.344944 -0.161539
-0.0616706 0.346784 -0.1624
-0.0600156 0.347704 -0.162831
-0.0969082 0.34264 -0.162411
-0.0953686 0.343559 -0.162846
-0.0935692 0.343559 -0.162846
-0.0922606 0.345396 -0.163717
-0.0909327 0.347233 -0.164588
-0.0898213 0.349989 -0.165894
-0.0811899 0.344477 -0.163281
-0.079174 0.343559 -0.162846
-0.065688 0.338966 -0.160669
-0.0640859 0.339884 -0.161104
-0.0626425 0.341722 -0.161975
-0.0611799 0.343559 -0.162846
-0.0593805 0.343559 -0.162846
-0.0557817 0.343559 -0.162846
-0.119078 0.34401 -0.165024
-0.116962 0.343093 -0.164584
-0.115162 0.343093 -0.164584
-0.0966484 0.341258 -0.163704
-0.0948587 0.341258 -0.163704
-0.093319 0.342176 -0.164144
-0.0917698 0.343093 -0.164584
-0.0906921 0.345845 -0.165904
-0.089114 0.346763 -0.166344
-0.0877572 0.348597 -0.167224
-0.085929 0.348597 -0.167224
-0.0759793 0.344928 -0.165464
-0.0741703 0.344928 -0.165464
-0.0719763 0.343093 -0.164584
-0.0672806 0.337589 -0.161944
-0.06551 0.337589 -0.161944
-0.0639127 0.338506 -0.162384
-0.0624741 0.340341 -0.163264
-0.0608527 0.341258 -0.163704
-0.0590629 0.341258 -0.163704
-0.0574271 0.342176 -0.164144
-0.0557817 0.343093 -0.164584
-0.0447062 0.370614 -0.177786
-0.0428683 0.371531 -0.178226
-0.0410207 0.372449 -0.178666
-0.0391636 0.373366 -0.179106
-0.113363 0.342627 -0.166322
-0.0963886 0.339879 -0.164988
-0.0948587 0.340795 -0.165433
-0.0930689 0.340795 -0.165433
-0.0777883 0.34446 -0.167212
-0.0757772 0.343544 -0.166767
-0.0741703 0.34446 -0.167212
-0.0721688 0.343544 -0.166767
-0.0701769 0.342627 -0.166322
-0.0676462 0.338963 -0.164543
-0.06551 0.337131 -0.163654
-0.0639127 0.338047 -0.164099
-0.0623057 0.338963 -0.164543
-0.0606891 0.339879 -0.164988
-0.0590629 0.340795 -0.165433
-0.0572731 0.340795 -0.165433
-0.0556325 0.341711 -0.165877
-0.0542709 0.34446 -0.167212
-0.0482328 0.367363 -0.178329
-0.046419 0.368279 -0.178774
-0.0444848 0.368279 -0.178774
-0.0989675 0.342162 -0.16806
-0.0971681 0.342162 -0.16806
-0.0951136 0.341247 -0.167611
-0.0773746 0.342162 -0.16806
-0.0757772 0.343077 -0.16851
-0.073973 0.343077 -0.16851
-0.0719763 0.342162 -0.16806
-0.0701769 0.342162 -0.16806
-0.067829 0.339417 -0.166712
-0.0624741 0.339417 -0.166712
-0.0608527 0.340332 -0.167162
-0.0481125 0.365948 -0.179744
-0.046188 0.365948 -0.179744
-0.0443742 0.366863 -0.180193
-0.0424449 0.366863 -0.180193
-0.0875119 0.353573 -0.1757
-0.0782021 0.353573 -0.1757
-0.0761429 0.352659 -0.175246
-0.0601984 0.357228 -0.177516
-0.0584663 0.358141 -0.17797
-0.0567247 0.359055 -0.178424
-0.0551129 0.360882 -0.179332
-0.0533472 0.361796 -0.179786
-0.0515718 0.362709 -0.18024
-0.0497868 0.363623 -0.180694
-0.047872 0.363623 -0.180694
-0.0459571 0.363623 -0.180694
-0.0441529 0.364537 -0.181148
-0.0422332 0.364537 -0.181148
-0.0403135 0.364537 -0.181148
-0.0383938 0.364537 -0.181148
-0.0364741 0.364537 -0.181148
-0.0898357 0.354916 -0.178416
-0.0879641 0.354916 -0.178416
-0.0823494 0.354916 -0.178416
-0.0804778 0.354916 -0.178416
-0.0786062 0.354916 -0.178416
-0.0769319 0.355828 -0.178875
-0.0750555 0.355828 -0.178875
-0.0586155 0.358565 -0.180251
-0.0567247 0.358565 -0.180251
-0.0549734 0.359478 -0.180709
-0.0530777 0.359478 -0.180709
-0.051312 0.36039 -0.181168
-0.0495367 0.361303 -0.181627
-0.0476314 0.361303 -0.181627
-0.0456107 0.36039 -0.181168
-0.0438209 0.361303 -0.181627
-0.0419156 0.361303 -0.181627
-0.0400104 0.361303 -0.181627
-0.0381051 0.361303 -0.181627
-0.0361999 0.361303 -0.181627
-0.0858712 0.35352 -0.179761
-0.0840045 0.35352 -0.179761
-0.0821377 0.35352 -0.179761
-0.0802709 0.35352 -0.179761
-0.0784042 0.35352 -0.179761
-0.0767347 0.354432 -0.180224
-0.056436 0.356254 -0.181151
-0.0545548 0.356254 -0.181151
-0.0528083 0.357165 -0.181614
-0.0509223 0.357165 -0.181614
-0.0491614 0.358076 -0.182077
-0.0472706 0.358076 -0.182077
-0.0453797 0.358076 -0.182077
-0.0434889 0.358076 -0.182077
-0.0414922 0.357165 -0.181614
-0.0396062 0.357165 -0.181614
-0.0377202 0.357165 -0.181614
-0.0358342 0.357165 -0.181614
-0.0896048 0.353037 -0.181564
-0.087738 0.353037 -0.181564
-0.0858712 0.353037 -0.181564
-0.0840045 0.353037 -0.181564
-0.0821377 0.353037 -0.181564
-0.0802709 0.353037 -0.181564
-0.0784042 0.353037 -0.181564
-0.0765374 0.353037 -0.181564
-0.0562916 0.354857 -0.1825
-0.0544153 0.354857 -0.1825
-0.0525389 0.354857 -0.1825
-0.0507924 0.355767 -0.182968
-0.0489112 0.355767 -0.182968
-0.04703 0.355767 -0.182968
-0.0451488 0.355767 -0.182968
-0.0431569 0.354857 -0.1825
-0.0412805 0.354857 -0.1825
-0.0394042 0.354857 -0.1825
-0.0947143 0.350737 -0.182422
-0.0928572 0.350737 -0.182422
-0.091 0.350737 -0.182422
-0.0891429 0.350737 -0.182422
-0.0872857 0.350737 -0.182422
-0.0854286 0.350737 -0.182422
-0.0835715 0.350737 -0.182422
-0.0817143 0.350737 -0.182422
-0.0798572 0.350737 -0.182422
-0.0782021 0.351645 -0.182894
-0.0763401 0.351645 -0.182894
-0.0742857 0.350737 -0.182422
-0.0724286 0.350737 -0.182422
-0.0687143 0.350737 -0.182422
-0.0937328 0.346627 -0.182307
-0.0921355 0.347534 -0.182784
-0.0902928 0.347534 -0.182784
-0.0884501 0.347534 -0.182784
-0.0866073 0.347534 -0.182784
-0.0847646 0.347534 -0.182784
-0.0829219 0.347534 -0.182784
-0.0808675 0.346627 -0.182307
-0.0790296 0.346627 -0.182307
-0.0773938 0.347534 -0.182784
-0.0755511 0.347534 -0.182784
-0.0737084 0.347534 -0.182784
-0.0745648 0.342526 -0.182154
-0.0727461 0.342526 -0.182154
-0.0709275 0.342526 -0.182154
-0.0449852 0.338436 -0.181965
-0.0431858 0.338436 -0.181965
-0.0413864 0.338436 -0.181965
-0.0377876 0.338436 -0.181965
-0.0514852 0.333452 -0.181247
-0.0497099 0.333452 -0.181247
-0.0480644 0.334356 -0.181738
-0.0462842 0.334356 -0.181738
-0.0445041 0.334356 -0.181738
-0.0426084 0.333452 -0.181247
-0.0408331 0.333452 -0.181247
-0.0390577 0.333452 -0.181247
-0.0372824 0.333452 -0.181247
-0.035507 0.333452 -0.181247
-0.124708 0.324871 -0.1785
-0.121171 0.329383 -0.180979
-0.0476747 0.331188 -0.18197
-0.044023 0.330285 -0.181475
-0.042262 0.330285 -0.181475
-0.0405011 0.330285 -0.181475
-0.0387402 0.330285 -0.181475
-0.0369793 0.330285 -0.181475
-0.124361 0.323521 -0.179672
-0.123317 0.325324 -0.180673
-0.124361 0.323074 -0.18134
-0.123317 0.324874 -0.182351
-0.124684 0.319032 -0.18097
-0.123668 0.32083 -0.181989
-0.0796743 0.323526 -0.183519
-0.0779423 0.323526 -0.183519
-0.0762102 0.323526 -0.183519
-0.0742713 0.322627 -0.183009
-0.0725441 0.322627 -0.183009
-0.124332 0.317693 -0.182105
-0.0785677 0.31859 -0.18262
-0.0768598 0.31859 -0.18262
