ply
format ascii 1.0
comment Created by Open3D
element vertex 426
property double x
property double y
property double z
end_header
0.0874012 0.549979 -0.211581
0.0476843 0.546437 -0.213207
-0.00182828 0.354276 -0.146033
0.00182346 0.353343 -0.145648
0.00364693 0.353343 -0.145648
0.00549926 0.355208 -0.146417
0.00737084 0.357073 -0.147186
0.0127306 0.352411 -0.145264
0.0163679 0.352411 -0.145264
0.0182346 0.353343 -0.145648
0.0200052 0.352411 -0.145264
0.0217661 0.351479 -0.14488
0.0369504 0.358005 -0.14757
-0.00740933 0.358458 -0.149743
-0.00554256 0.357527 -0.149354
-0.00365655 0.353802 -0.147799
-0.00182828 0.353802 -0.147799
0 0.35194 -0.147021
0.00365655 0.353802 -0.147799
0.00548483 0.353802 -0.147799
0.00729386 0.352871 -0.14741
0.00909327 0.35194 -0.147021
0.0109119 0.35194 -0.147021
0.0145877 0.352871 -0.14741
0.0163679 0.35194 -0.147021
0.0182346 0.352871 -0.14741
0.0200052 0.35194 -0.147021
0.0217084 0.350078 -0.146243
0.0235174 0.350078 -0.146243
0.0272076 0.351009 -0.146632
0.0293294 0.354733 -0.148188
0.0311625 0.354733 -0.148188
0.0332554 0.357527 -0.149354
0.0351943 0.358458 -0.149743
0.0370466 0.358458 -0.149743
0.0387979 0.357527 -0.149354
-0.00916544 0.354259 -0.149958
-0.00733235 0.354259 -0.149958
-0.0055137 0.355189 -0.150352
-0.00365655 0.353329 -0.149565
-0.00181865 0.35147 -0.148777
0 0.35147 -0.148777
0.00181865 0.35147 -0.148777
0.00544153 0.35054 -0.148384
0.00909327 0.35147 -0.148777
0.0109697 0.353329 -0.149565
0.0127306 0.35147 -0.148777
0.0145877 0.352399 -0.149171
0.0164545 0.353329 -0.149565
0.0182346 0.352399 -0.149171
0.0200052 0.35147 -0.148777
0.0217661 0.35054 -0.148384
0.0253264 0.34961 -0.14799
0.0271355 0.34961 -0.14799
0.0290985 0.35147 -0.148777
0.0309989 0.352399 -0.149171
0.0328224 0.352399 -0.149171
0.0346458 0.352399 -0.149171
0.0366617 0.354259 -0.149958
0.0386969 0.356119 -0.150745
-0.00729386 0.351927 -0.150932
-0.00548483 0.352856 -0.151331
-0.00366617 0.353785 -0.151729
-0.00182828 0.352856 -0.151331
0 0.350999 -0.150534
0.00181384 0.35007 -0.150136
0.00723612 0.349142 -0.149738
0.0109119 0.350999 -0.150534
0.0127306 0.350999 -0.150534
0.0145877 0.351927 -0.150932
0.0164112 0.351927 -0.150932
0.0181384 0.35007 -0.150136
0.0198993 0.349142 -0.149738
0.0290215 0.35007 -0.150136
0.0307535 0.349142 -0.149738
0.0345544 0.350999 -0.150534
0.0365655 0.352856 -0.151331
-0.00545596 0.350528 -0.152291
-0.00363731 0.350528 -0.152291
-0.00181384 0.349601 -0.151888
0 0.349601 -0.151888
0.00539823 0.346819 -0.150679
0.0125959 0.346819 -0.150679
0.0215352 0.345892 -0.150276
0.0233923 0.346819 -0.150679
0.0361806 0.348674 -0.151485
-0.0017946 0.345427 -0.15201
0.00357957 0.344501 -0.151602
0.0105366 0.338018 -0.14875
0.0122591 0.337092 -0.148342
0.0140104 0.337092 -0.148342
0.0157617 0.337092 -0.148342
0.0176092 0.338945 -0.149157
0.0212465 0.340797 -0.149972
0.0231421 0.342649 -0.150787
0.025057 0.344501 -0.151602
0.0356033 0.342649 -0.150787
0 0.338489 -0.150858
0.00176573 0.339414 -0.15127
0.0122591 0.336639 -0.150034
0.0139719 0.335714 -0.149621
0.0192643 0.336639 -0.150034
0.0210155 0.336639 -0.150034
0.0227668 0.336639 -0.150034
0.0246529 0.338489 -0.150858
0 0.335262 -0.151308
0.00174648 0.335262 -0.151308
0.0121917 0.334339 -0.150892
0.0139334 0.334339 -0.150892
0.0192643 0.336186 -0.151725
-0.0244219 0.390151 -0.178284
0 0.331121 -0.15131
0.00173205 0.332043 -0.151731
0.00347372 0.332966 -0.152152
0.00519615 0.332043 -0.151731
0.00694745 0.332966 -0.152152
0.00870837 0.333888 -0.152574
0.0104212 0.332966 -0.152152
0.0277898 0.332966 -0.152152
-0.0243064 0.387782 -0.179397
0.00171281 0.327911 -0.1517
0.00343523 0.328832 -0.152126
0.00516729 0.329753 -0.152552
0.00690896 0.330674 -0.152978
0.00866025 0.331595 -0.153404
0.0104212 0.332516 -0.15383
0.0120907 0.330674 -0.152978
0.0155452 0.330674 -0.152978
0.0173686 0.332516 -0.15383
0.0208423 0.332516 -0.15383
0.0293631 0.330674 -0.152978
0.00169837 0.324708 -0.152062
0.00341599 0.326547 -0.152923
0.00513842 0.327467 -0.153354
0.00683198 0.326547 -0.152923
0.00853997 0.326547 -0.152923
0.0102768 0.327467 -0.153354
0.0119896 0.327467 -0.153354
0.0137794 0.329307 -0.154216
0.0155452 0.330227 -0.154646
0.0225792 0.332067 -0.155508
0.0241814 0.330227 -0.154646
0.0258364 0.329307 -0.154216
0.0291995 0.328387 -0.153785
0.0437824 0.321948 -0.150769
-0.00169356 0.32335 -0.153267
0 0.32335 -0.153267
0.00169837 0.324268 -0.153702
0.00508068 0.32335 -0.153267
0.006755 0.322431 -0.152831
0.00844375 0.322431 -0.152831
0.0101614 0.32335 -0.153267
0.0118549 0.32335 -0.153267
0.013587 0.324268 -0.153702
0.0256921 0.327024 -0.155008
0.036171 0.328861 -0.155879
-0.00169837 0.323829 -0.155343
0 0.323829 -0.155343
0.00169837 0.323829 -0.155343
0.00338712 0.322911 -0.154903
0.00508068 0.322911 -0.154903
0.00677424 0.322911 -0.154903
0.00844375 0.321994 -0.154463
0.0101325 0.321994 -0.154463
0.0118549 0.322911 -0.154903
0.01351 0.321994 -0.154463
-0.00172724 0.328886 -0.159651
0 0.327053 -0.158762
0.00171281 0.326137 -0.158317
0.00342561 0.326137 -0.158317
0.00513842 0.326137 -0.158317
0.00687047 0.327053 -0.158762
0.0103634 0.328886 -0.159651
0 0.328439 -0.16132
0.00171762 0.326609 -0.160421
0.00344486 0.327524 -0.16087
0.00516729 0.327524 -0.16087
0.00690896 0.328439 -0.16132
0.00173686 0.329819 -0.163896
0.0034641 0.328905 -0.163442
0.00519615 0.328905 -0.163442
0.00694745 0.329819 -0.163896
0.0246432 0.359968 -0.178878
0.0264715 0.359055 -0.178424
0.0284345 0.359968 -0.178878
0.0304841 0.361796 -0.179786
0.0323893 0.361796 -0.179786
0.0344678 0.363623 -0.180694
0.0362913 0.362709 -0.18024
0.00173686 0.329369 -0.165574
0.0034641 0.328457 -0.165115
0.00521059 0.329369 -0.165574
0.0244556 0.356741 -0.179334
0.0263368 0.356741 -0.179334
0.0283623 0.358565 -0.180251
0.0304071 0.36039 -0.181168
0.0323893 0.361303 -0.181627
0.102788 0.397798 -0.199973
0.104885 0.397798 -0.199973
0.106738 0.396885 -0.199514
0.0224589 0.354432 -0.180224
0.0243305 0.354432 -0.180224
0.0262021 0.354432 -0.180224
0.028218 0.356254 -0.181151
0.0301762 0.357165 -0.181614
0.0322258 0.358987 -0.182541
0.0342946 0.360809 -0.183467
0.0983661 0.396344 -0.201536
0.100459 0.396344 -0.201536
0.102552 0.396344 -0.201536
-0.0017513 0.3312 -0.170333
0 0.33211 -0.170801
0.00174167 0.32938 -0.169397
0.00348335 0.32938 -0.169397
0.00710141 0.335749 -0.172673
0.0224012 0.353037 -0.181564
0.024268 0.353037 -0.181564
0.0261347 0.353037 -0.181564
0.0280737 0.353947 -0.182032
0.0300222 0.354857 -0.1825
0.0319804 0.355767 -0.182968
0.0922991 0.396712 -0.204025
0.0960518 0.394892 -0.203089
0.0981399 0.394892 -0.203089
0.100228 0.394892 -0.203089
0.102552 0.395802 -0.203557
0.104645 0.395802 -0.203557
-0.00352184 0.332564 -0.17297
-0.00175611 0.331655 -0.172497
0 0.331655 -0.172497
0.0017513 0.330747 -0.172025
0.00349297 0.329838 -0.171552
0.00712065 0.336199 -0.17486
0.00899704 0.339833 -0.176751
0.0204286 0.350737 -0.182422
0.0222857 0.350737 -0.182422
0.0242054 0.351645 -0.182894
0.0260674 0.351645 -0.182894
0.0279293 0.351645 -0.182894
0.0297913 0.351645 -0.182894
0.031735 0.352554 -0.183367
0.0336018 0.352554 -0.183367
0.0922991 0.396169 -0.206052
0.0981399 0.394352 -0.205106
0.100459 0.39526 -0.205579
0.102788 0.396169 -0.206052
-0.00351221 0.331201 -0.174194
-0.00175611 0.331201 -0.174194
0 0.331201 -0.174194
0.0017513 0.330293 -0.173716
0.00350259 0.330293 -0.173716
0.00712065 0.335738 -0.17658
0.0108253 0.340275 -0.178966
0.0126632 0.341182 -0.179443
0.0221125 0.347534 -0.182784
0.0240178 0.348441 -0.183261
0.0259326 0.349349 -0.183738
0.027785 0.349349 -0.183738
0.0296373 0.349349 -0.183738
0.0315714 0.350256 -0.184216
0.0334286 0.350256 -0.184216
0.0353771 0.351164 -0.184693
-0.00352184 0.331652 -0.176372
-0.0017513 0.32984 -0.175408
0 0.32984 -0.175408
0.00174648 0.328934 -0.174926
0.00350259 0.32984 -0.175408
0.00899704 0.338902 -0.180227
0.0108253 0.339808 -0.180709
0.0126295 0.339808 -0.180709
0.0144722 0.340714 -0.181191
0.0163246 0.34162 -0.181673
0.0181865 0.342526 -0.182154
0.0200581 0.343432 -0.182636
0.021997 0.345245 -0.1836
0.0238301 0.345245 -0.1836
0.0257306 0.346151 -0.184082
0.0276406 0.347057 -0.184564
0.0295603 0.347963 -0.185046
0.0314079 0.347963 -0.185046
0.033342 0.348869 -0.185528
0.0352857 0.349776 -0.18601
0.0371429 0.349776 -0.18601
-0.00352184 0.331197 -0.178073
-0.0017513 0.329387 -0.1771
0 0.329387 -0.1771
0.00174648 0.328482 -0.176613
0.00348335 0.327577 -0.176127
0.0144338 0.339341 -0.182452
0.0162813 0.340246 -0.182938
0.0181384 0.341151 -0.183425
0.0200052 0.342056 -0.183911
0.0218238 0.342056 -0.183911
0.023705 0.34296 -0.184398
0.0255285 0.34296 -0.184398
0.0274963 0.34477 -0.185371
0.0294064 0.345675 -0.185857
0.0313261 0.34658 -0.186344
0.0332554 0.347485 -0.18683
0.0351029 0.347485 -0.18683
0.0370466 0.34839 -0.187317
-0.00350259 0.328934 -0.178791
-0.0017513 0.328934 -0.178791
0 0.328934 -0.178791
0.00349297 0.32803 -0.1783
0.00706292 0.331645 -0.180265
0.0180903 0.339778 -0.184685
0.0198993 0.339778 -0.184685
0.0217661 0.340681 -0.185177
0.0236425 0.341585 -0.185668
0.0254611 0.341585 -0.185668
0.0272798 0.341585 -0.185668
0.0291754 0.342489 -0.186159
0.0311625 0.344296 -0.187141
0.0350115 0.346103 -0.188124
0.0368542 0.346103 -0.188124
0.123341 0.399419 -0.217104
-0.0245855 0.329383 -0.180979
-0.017513 0.32848 -0.180483
-0.0157617 0.32848 -0.180483
-0.00526832 0.329383 -0.180979
-0.00350259 0.32848 -0.180483
-0.0017513 0.32848 -0.180483
0 0.32848 -0.180483
0.0253264 0.339309 -0.186433
0.0271355 0.339309 -0.186433
0.0290215 0.340212 -0.186929
0.0309171 0.341114 -0.187424
0.0328224 0.342017 -0.18792
-0.0104789 0.327126 -0.181674
-0.00873242 0.327126 -0.181674
-0.00698594 0.327126 -0.181674
-0.00523945 0.327126 -0.181674
-0.00350259 0.328027 -0.182174
-0.0017513 0.328027 -0.182174
0 0.328027 -0.182174
0.00522502 0.326225 -0.181174
-0.00522502 0.325774 -0.182856
-0.00350259 0.327574 -0.183866
-0.00174648 0.326674 -0.183361
0 0.327574 -0.183866
0.00348335 0.325774 -0.182856
0.00522502 0.325774 -0.182856
0.00868431 0.324874 -0.182351
0.0104212 0.324874 -0.182351
0.0138949 0.324874 -0.182351
-0.0181529 0.30654 -0.181229
-0.00667802 0.310114 -0.183342
-0.00500851 0.310114 -0.183342
-0.00333901 0.310114 -0.183342
-0.0016695 0.310114 -0.183342
0 0.310114 -0.183342
0.0016695 0.310114 -0.183342
0.00333901 0.310114 -0.183342
0.00500851 0.310114 -0.183342
0.00665877 0.309221 -0.182814
0.00165507 0.307005 -0.183356
0.00331014 0.307005 -0.183356
0.00496521 0.307005 -0.183356
0.00660104 0.306113 -0.182823
0.00987269 0.30522 -0.18229
0.0114845 0.304328 -0.181757
0.0131251 0.304328 -0.181757
0.0147657 0.304328 -0.181757
0.0164064 0.304328 -0.181757
-0.0228342 0.302121 -0.182266
-0.00493634 0.304794 -0.183879
-0.0032909 0.304794 -0.183879
-0.00164545 0.304794 -0.183879
0 0.304794 -0.183879
0.00164064 0.303903 -0.183341
0.00328127 0.303903 -0.183341
0.00492191 0.303903 -0.183341
0.00656255 0.303903 -0.183341
0.00820318 0.303903 -0.183341
0.00981495 0.303012 -0.182804
0.0114508 0.303012 -0.182804
0.0130866 0.303012 -0.182804
0.0147224 0.303012 -0.182804
0.0163583 0.303012 -0.182804
0.00652406 0.301698 -0.183841
-0.0238157 0.293278 -0.180494
-0.022228 0.293278 -0.180494
-0.0207028 0.294167 -0.181041
-0.0191103 0.294167 -0.181041
-0.0175178 0.294167 -0.181041
0.0207654 0.295055 -0.181588
-0.0221606 0.291979 -0.181476
-0.0205777 0.291979 -0.181476
-0.0142894 0.292867 -0.182028
0.0174648 0.292867 -0.182028
-0.0205152 0.290684 -0.182449
-0.0189948 0.29157 -0.183005
-0.0174119 0.29157 -0.183005
-0.015829 0.29157 -0.183005
-0.0142461 0.29157 -0.183005
-0.00946854 0.290684 -0.182449
-0.0247876 0.284965 -0.180608
-0.0232383 0.284965 -0.180608
-0.0217565 0.28585 -0.181169
-0.0202024 0.28585 -0.181169
-0.0186484 0.28585 -0.181169
-0.0170944 0.28585 -0.181169
-0.0155403 0.28585 -0.181169
-0.0139863 0.28585 -0.181169
-0.0124323 0.28585 -0.181169
-0.0108782 0.28585 -0.181169
-0.00929534 0.284965 -0.180608
-0.00774612 0.284965 -0.180608
-0.00619689 0.284965 -0.180608
-0.00463324 0.28408 -0.180047
-0.00308882 0.28408 -0.180047
-0.00154441 0.28408 -0.180047
-0.0200774 0.28368 -0.181539
-0.0185329 0.28368 -0.181539
-0.0169885 0.28368 -0.181539
-0.0154441 0.28368 -0.181539
-0.0138997 0.28368 -0.181539
-0.0108109 0.28368 -0.181539
-0.00926647 0.28368 -0.181539
-0.00772206 0.28368 -0.181539
-0.0061584 0.282797 -0.180973
-0.0046188 0.282797 -0.180973
0.11637 0.31903 -0.204161
0.123226 0.292785 -0.209381
0.124847 0.292365 -0.210947
