ply
format ascii 1.0
comment Created by Open3D
element vertex 1703
property double x
property double y
property double z
end_header
-0.0267698 1.40076 -0.146692
-0.0200774 1.40076 -0.146692
-0.0133272 1.39472 -0.146059
-0.00663953 1.38969 -0.145532
0 1.39472 -0.146059
0.00672132 1.40681 -0.147324
0.0134908 1.41184 -0.147852
0.0260193 1.36149 -0.142579
-0.44442 1.30851 -0.143247
-0.434793 1.29845 -0.142146
-0.426922 1.29342 -0.141595
-0.42237 1.29845 -0.142146
-0.416159 1.29845 -0.142146
-0.399469 1.26526 -0.138512
-0.321103 1.4282 -0.156349
-0.315599 1.43423 -0.15701
-0.307439 1.4282 -0.156349
-0.288156 1.43423 -0.15701
-0.283662 1.4463 -0.158331
-0.275589 1.44027 -0.15767
-0.267573 1.43423 -0.15701
-0.260712 1.43423 -0.15701
-0.255987 1.4463 -0.158331
-0.250108 1.45234 -0.158992
-0.24114 1.44027 -0.15767
-0.23425 1.44027 -0.15767
-0.228313 1.4463 -0.158331
-0.221395 1.4463 -0.158331
-0.215371 1.45234 -0.158992
-0.202313 1.45837 -0.159652
-0.180634 1.45234 -0.158992
-0.152844 1.45234 -0.158992
-0.139526 1.45837 -0.159652
-0.132002 1.45234 -0.158992
-0.124015 1.44027 -0.15767
-0.117616 1.4463 -0.158331
-0.110235 1.44027 -0.15767
-0.102913 1.43423 -0.15701
-0.0884404 1.42216 -0.155689
-0.0816373 1.42216 -0.155689
-0.0739345 1.40507 -0.153817
-0.0666358 1.393 -0.152495
-0.0602321 1.39903 -0.153156
-0.0535396 1.39903 -0.153156
-0.0464767 1.38797 -0.151945
-0.039664 1.38193 -0.151284
-0.032933 1.3769 -0.150734
-0.0264426 1.38193 -0.151284
-0.0129615 1.35478 -0.148311
-0.00648076 1.35478 -0.148311
0 1.36584 -0.149523
0.00653368 1.36584 -0.149523
0.0539822 1.12848 -0.123538
0.12478 1.24213 -0.13598
-0.442712 1.30187 -0.148719
-0.430078 1.28278 -0.146539
-0.423934 1.28278 -0.146539
-0.42237 1.29685 -0.148145
-0.417771 1.30187 -0.148719
-0.401056 1.26872 -0.144932
-0.231306 1.4204 -0.16226
-0.225455 1.42643 -0.162948
-0.220471 1.43848 -0.164325
-0.213581 1.43848 -0.164325
-0.0512302 1.33703 -0.152735
-0.0439845 1.31191 -0.149867
-0.0378453 1.31694 -0.15044
-0.031658 1.32196 -0.151014
-0.0188505 1.31191 -0.149867
-0.0124708 1.30187 -0.148719
-0.00623538 1.30187 -0.148719
0 1.30187 -0.148719
0.00621133 1.29685 -0.148145
0.0429164 1.12005 -0.127949
0.0482809 1.12005 -0.127949
0.0541747 1.1311 -0.129211
0.060386 1.14617 -0.130932
0.0667417 1.16123 -0.132654
0.117972 1.23155 -0.140686
0.124376 1.23657 -0.14126
-0.441004 1.29524 -0.154145
-0.428394 1.27618 -0.151876
-0.422274 1.27618 -0.151876
-0.42237 1.29524 -0.154145
-0.417771 1.30025 -0.154742
-0.401056 1.26715 -0.150802
-0.24993 1.27116 -0.151279
-0.238677 1.27618 -0.151876
-0.073439 1.27618 -0.151876
-0.0670544 1.27116 -0.151279
-0.0555122 1.28621 -0.15307
-0.0494982 1.29022 -0.153548
-0.0433109 1.29022 -0.153548
-0.0370082 1.28621 -0.15307
-0.0308401 1.28621 -0.15307
-0.0246721 1.28621 -0.15307
-0.0184319 1.28119 -0.152473
-0.0122398 1.27618 -0.151876
-0.00609586 1.27116 -0.151279
0 1.26213 -0.150205
0.0059852 1.24808 -0.148533
0.0118838 1.23905 -0.147459
0.0276166 1.15177 -0.137071
0.0387979 1.15578 -0.137548
0.0443405 1.15578 -0.137548
0.0495367 1.14776 -0.136593
0.0554256 1.15578 -0.137548
0.0616033 1.16782 -0.138981
0.0695707 1.20896 -0.143877
0.0766817 1.23003 -0.146384
0.113719 1.24808 -0.148533
0.119319 1.24407 -0.148056
0.125285 1.24407 -0.148056
-0.428394 1.27459 -0.157788
-0.420614 1.26958 -0.157168
-0.419426 1.28461 -0.159028
-0.411646 1.2796 -0.158408
-0.399469 1.26056 -0.156051
-0.097168 1.12429 -0.139181
-0.0917698 1.12429 -0.139181
0.0328224 1.13932 -0.141041
0.0385285 1.14633 -0.14191
0.0440326 1.14633 -0.14191
0.0495367 1.14633 -0.14191
0.0550407 1.14633 -0.14191
0.0609682 1.15435 -0.142902
0.0672036 1.16637 -0.144391
0.0745552 1.19443 -0.147864
0.0820415 1.22048 -0.151089
0.0894893 1.24253 -0.153818
0.0968409 1.26056 -0.156051
0.108513 1.25555 -0.155431
0.119704 1.24654 -0.154314
0.125285 1.24253 -0.153818
0.130722 1.23752 -0.153198
0.135668 1.2285 -0.152082
0.140065 1.21547 -0.150469
0.144939 1.20746 -0.149477
-0.42671 1.268 -0.163056
-0.419286 1.264 -0.162541
-0.414518 1.268 -0.163056
-0.410034 1.27301 -0.163699
-0.341301 1.12689 -0.14491
-0.333497 1.11889 -0.14388
-0.328118 1.11889 -0.14388
-0.322739 1.11889 -0.14388
-0.315373 1.11188 -0.142979
-0.310027 1.11188 -0.142979
-0.304682 1.11188 -0.142979
-0.298259 1.10788 -0.142465
-0.292139 1.10488 -0.142078
-0.287607 1.10788 -0.142465
-0.282281 1.10788 -0.142465
-0.276955 1.10788 -0.142465
-0.269911 1.10087 -0.141564
-0.263897 1.09787 -0.141178
-0.258619 1.09787 -0.141178
-0.253341 1.09787 -0.141178
-0.24648 1.09086 -0.140277
-0.240351 1.08686 -0.139762
-0.235126 1.08686 -0.139762
-0.228419 1.07986 -0.138861
-0.223228 1.07986 -0.138861
-0.218036 1.07986 -0.138861
-0.214226 1.08686 -0.139762
-0.209771 1.09086 -0.140277
-0.203776 1.08686 -0.139762
-0.198002 1.08386 -0.139376
-0.192792 1.08386 -0.139376
-0.186888 1.07986 -0.138861
-0.181697 1.07986 -0.138861
-0.176506 1.07986 -0.138861
-0.171314 1.07986 -0.138861
-0.166739 1.08386 -0.139376
-0.161528 1.08386 -0.139376
-0.156318 1.08386 -0.139376
-0.151526 1.08686 -0.139762
-0.146301 1.08686 -0.139762
-0.140686 1.08386 -0.139376
-0.135851 1.08686 -0.139762
-0.130625 1.08686 -0.139762
-0.125862 1.09086 -0.140277
-0.121393 1.09787 -0.141178
-0.115691 1.09387 -0.140663
-0.110433 1.09387 -0.140663
-0.105559 1.09787 -0.141178
-0.100555 1.10087 -0.141564
-0.0952628 1.10087 -0.141564
-0.089725 1.09787 -0.141178
-0.084678 1.10087 -0.141564
-0.0793857 1.10087 -0.141564
-0.0738912 1.09787 -0.141178
-0.0688009 1.10087 -0.141564
-0.0635085 1.10087 -0.141564
-0.0582162 1.10087 -0.141564
-0.0529238 1.10087 -0.141564
-0.0475015 1.09787 -0.141178
-0.042339 1.10087 -0.141564
-0.0370466 1.10087 -0.141564
-0.0317543 1.10087 -0.141564
0.0213812 1.11188 -0.142979
0.0377876 1.12289 -0.144395
0.0431858 1.12289 -0.144395
0.048584 1.12289 -0.144395
0.0539822 1.12289 -0.144395
0.0597509 1.12989 -0.145296
0.0658757 1.1419 -0.14684
0.0720533 1.15291 -0.148256
0.0794819 1.18094 -0.151859
0.0872521 1.20996 -0.155591
0.0943775 1.22697 -0.157779
0.102157 1.24999 -0.160739
0.114541 1.25399 -0.161254
0.120185 1.24999 -0.160739
0.125689 1.24499 -0.160096
0.136221 1.23198 -0.158423
-0.420648 1.24843 -0.166544
-0.409991 1.23444 -0.164677
-0.352136 1.12549 -0.150143
-0.343331 1.1145 -0.148676
-0.336754 1.1105 -0.148143
-0.330215 1.1065 -0.147609
-0.324889 1.1065 -0.147609
-0.319563 1.1065 -0.147609
-0.314237 1.1065 -0.147609
-0.308911 1.1065 -0.147609
-0.302762 1.1035 -0.147209
-0.297451 1.1035 -0.147209
-0.291081 1.0995 -0.146676
-0.285788 1.0995 -0.146676
-0.279731 1.0965 -0.146276
-0.273452 1.09251 -0.145742
-0.267458 1.08951 -0.145342
-0.261251 1.08551 -0.144809
-0.255319 1.08251 -0.144409
-0.250108 1.08251 -0.144409
-0.243993 1.07851 -0.143876
-0.238138 1.07551 -0.143476
-0.232961 1.07551 -0.143476
-0.227784 1.07551 -0.143476
-0.222607 1.07551 -0.143476
-0.216824 1.07251 -0.143076
-0.213634 1.08251 -0.144409
-0.209001 1.08551 -0.144809
-0.201899 1.07551 -0.143476
-0.197271 1.07851 -0.143876
-0.192792 1.08251 -0.144409
-0.186888 1.07851 -0.143876
-0.181697 1.07851 -0.143876
-0.176506 1.07851 -0.143876
-0.171314 1.07851 -0.143876
-0.166739 1.08251 -0.144409
-0.161528 1.08251 -0.144409
-0.156318 1.08251 -0.144409
-0.151526 1.08551 -0.144809
-0.145896 1.08251 -0.144409
-0.140686 1.08251 -0.144409
-0.135475 1.08251 -0.144409
-0.130265 1.08251 -0.144409
-0.1254 1.08551 -0.144809
-0.120618 1.08951 -0.145342
-0.115374 1.08951 -0.145342
-0.11013 1.08951 -0.145342
-0.105174 1.09251 -0.145742
-0.0999153 1.09251 -0.145742
-0.0946566 1.09251 -0.145742
-0.0893979 1.09251 -0.145742
-0.0839082 1.08951 -0.145342
-0.078664 1.08951 -0.145342
-0.0731503 1.08551 -0.144809
-0.0679253 1.08551 -0.144809
-0.0629312 1.08951 -0.145342
-0.0574752 1.08551 -0.144809
-0.0522502 1.08551 -0.144809
-0.0468953 1.08251 -0.144409
-0.0418002 1.08551 -0.144809
-0.0365751 1.08551 -0.144809
-0.0314656 1.08951 -0.145342
-0.0262213 1.08951 -0.145342
-0.0211118 1.0965 -0.146276
-0.0105174 1.09251 -0.145742
-0.00527794 1.0965 -0.146276
0 1.0965 -0.146276
0.00527794 1.0965 -0.146276
0.0105848 1.0995 -0.146676
0.0159349 1.1035 -0.147209
0.0212465 1.1035 -0.147209
0.0265581 1.1035 -0.147209
0.0319563 1.1065 -0.147609
0.0372824 1.1065 -0.147609
0.0427624 1.1105 -0.148143
0.0482809 1.1145 -0.148676
0.0537898 1.11749 -0.149076
0.0595922 1.12549 -0.150143
0.0654138 1.13249 -0.151076
0.0715529 1.14348 -0.152543
0.0773264 1.14748 -0.153076
0.0834271 1.15548 -0.154143
0.0911444 1.18346 -0.157876
0.106954 1.23444 -0.164677
0.114541 1.25243 -0.167077
0.120185 1.24843 -0.166544
0.125285 1.23944 -0.165344
0.13766 1.24344 -0.165877
0.143183 1.23944 -0.165344
0.157992 1.26243 -0.16841
-0.411555 1.21993 -0.168622
-0.394388 1.18598 -0.163931
-0.35406 1.11311 -0.153858
-0.346194 1.10512 -0.152754
-0.342099 1.10911 -0.153306
-0.334632 1.10213 -0.15234
-0.328127 1.09813 -0.151788
-0.324009 1.10213 -0.15234
-0.317543 1.09813 -0.151788
-0.311399 1.09514 -0.151374
-0.306121 1.09514 -0.151374
-0.299746 1.09114 -0.150822
-0.294487 1.09114 -0.150822
-0.287376 1.08416 -0.149856
-0.282151 1.08416 -0.149856
-0.276161 1.08116 -0.149442
-0.26995 1.07717 -0.14889
-0.26574 1.08116 -0.149442
-0.259567 1.07717 -0.14889
-0.254376 1.07717 -0.14889
-0.249184 1.07717 -0.14889
-0.243315 1.07417 -0.148476
-0.238138 1.07417 -0.148476
-0.232311 1.07118 -0.148062
-0.227149 1.07118 -0.148062
-0.221159 1.06719 -0.14751
-0.216016 1.06719 -0.14751
-0.212253 1.07417 -0.148476
-0.207076 1.07417 -0.148476
-0.200586 1.06719 -0.14751
-0.196722 1.07417 -0.148476
-0.191546 1.07417 -0.148476
-0.186369 1.07417 -0.148476
-0.181192 1.07417 -0.148476
-0.176015 1.07417 -0.148476
-0.170838 1.07417 -0.148476
-0.165661 1.07417 -0.148476
-0.160484 1.07417 -0.148476
-0.155307 1.07417 -0.148476
-0.150549 1.07717 -0.14889
-0.144953 1.07417 -0.148476
-0.139776 1.07417 -0.148476
-0.1346 1.07417 -0.148476
-0.129423 1.07417 -0.148476
-0.125054 1.08116 -0.149442
-0.120175 1.08416 -0.149856
-0.11495 1.08416 -0.149856
-0.109422 1.08116 -0.149442
-0.103827 1.07717 -0.14889
-0.0990011 1.08116 -0.149442
-0.0937905 1.08116 -0.149442
-0.08858 1.08116 -0.149442
-0.0833694 1.08116 -0.149442
-0.0781588 1.08116 -0.149442
-0.0726788 1.07717 -0.14889
-0.0674874 1.07717 -0.14889
-0.062527 1.08116 -0.149442
-0.0571048 1.07717 -0.14889
-0.0519134 1.07717 -0.14889
-0.0465922 1.07417 -0.148476
-0.0414153 1.07417 -0.148476
-0.0363394 1.07717 -0.14889
-0.0312635 1.08116 -0.149442
-0.0260529 1.08116 -0.149442
-0.0209001 1.08416 -0.149856
-0.0104212 1.08116 -0.149442
-0.00522502 1.08416 -0.149856
0 1.08416 -0.149856
0.00524427 1.08815 -0.150408
0.0105174 1.09114 -0.150822
0.0158338 1.09514 -0.151374
0.0211118 1.09514 -0.151374
0.0264619 1.09813 -0.151788
0.0317543 1.09813 -0.151788
0.0370466 1.09813 -0.151788
0.042493 1.10213 -0.15234
0.0481077 1.10911 -0.153306
0.0537898 1.1161 -0.154272
0.0595922 1.12409 -0.155376
0.0654138 1.13108 -0.156341
0.0713653 1.13906 -0.157445
0.0768549 1.13906 -0.157445
0.0831384 1.15004 -0.158963
0.0905285 1.174 -0.162275
0.0978224 1.19397 -0.165035
0.106608 1.22891 -0.169864
0.115456 1.26086 -0.17428
0.121051 1.25586 -0.17359
0.126194 1.24688 -0.172348
0.139209 1.25586 -0.17359
0.145839 1.26086 -0.17428
0.153599 1.27483 -0.176212
0.16212 1.2938 -0.178834
-0.398757 1.18052 -0.168881
-0.378785 1.13764 -0.162748
-0.369369 1.12568 -0.161036
-0.360392 1.11471 -0.159467
-0.35152 1.10374 -0.157898
-0.344005 1.09676 -0.1569
-0.338712 1.09676 -0.1569
-0.33342 1.09676 -0.1569
-0.327233 1.09377 -0.156472
-0.321955 1.09377 -0.156472
-0.315522 1.08978 -0.155901
-0.310263 1.08978 -0.155901
-0.305005 1.08978 -0.155901
-0.298923 1.08679 -0.155473
-0.292601 1.0828 -0.154903
-0.286582 1.07981 -0.154475
-0.281372 1.07981 -0.154475
-0.276161 1.07981 -0.154475
-0.26995 1.07582 -0.153904
-0.264758 1.07582 -0.153904
-0.259567 1.07582 -0.153904
-0.253668 1.07283 -0.153477
-0.248492 1.07283 -0.153477
-0.243315 1.07283 -0.153477
-0.238138 1.07283 -0.153477
-0.232311 1.06984 -0.153049
-0.226302 1.06585 -0.152478
-0.221159 1.06585 -0.152478
-0.216016 1.06585 -0.152478
-0.210872 1.06585 -0.152478
-0.205729 1.06585 -0.152478
-0.200586 1.06585 -0.152478
-0.195443 1.06585 -0.152478
-0.190299 1.06585 -0.152478
-0.185156 1.06585 -0.152478
-0.180013 1.06585 -0.152478
-0.17487 1.06585 -0.152478
-0.169727 1.06585 -0.152478
-0.164583 1.06585 -0.152478
-0.158993 1.06286 -0.15205
-0.154297 1.06585 -0.152478
-0.149154 1.06585 -0.152478
-0.14401 1.06585 -0.152478
-0.138867 1.06585 -0.152478
-0.133349 1.06286 -0.15205
-0.12822 1.06286 -0.15205
-0.123899 1.06984 -0.153049
-0.118737 1.06984 -0.153049
-0.113574 1.06984 -0.153049
-0.108715 1.07283 -0.153477
-0.103538 1.07283 -0.153477
-0.0983612 1.07283 -0.153477
-0.0931843 1.07283 -0.153477
-0.0880074 1.07283 -0.153477
-0.0825996 1.06984 -0.153049
-0.0776536 1.07283 -0.153477
-0.0722746 1.06984 -0.153049
-0.0671122 1.06984 -0.153049
-0.0619497 1.06984 -0.153049
-0.0567872 1.06984 -0.153049
-0.0516247 1.06984 -0.153049
-0.0464623 1.06984 -0.153049
-0.0411458 1.06585 -0.152478
-0.0360026 1.06585 -0.152478
-0.0309748 1.06984 -0.153049
-0.0258124 1.06984 -0.153049
-0.0207076 1.07283 -0.153477
-0.0155307 1.07283 -0.153477
-0.0103538 1.07283 -0.153477
-0.00517691 1.07283 -0.153477
0 1.07582 -0.153904
0.00519134 1.07582 -0.153904
0.0104212 1.07981 -0.154475
0.0156318 1.07981 -0.154475
0.0208423 1.07981 -0.154475
0.0261251 1.0828 -0.154903
0.0314656 1.08679 -0.155473
0.0369456 1.09377 -0.156472
0.042339 1.09676 -0.1569
0.0478046 1.10075 -0.15747
0.0536455 1.11172 -0.159039
0.0595922 1.12269 -0.160608
0.0651828 1.12568 -0.161036
0.0711151 1.13365 -0.162177
0.0765855 1.13365 -0.162177
0.0828498 1.14462 -0.163746
0.0902206 1.16855 -0.16717
0.0978224 1.19248 -0.170593
0.106175 1.22239 -0.174872
0.114999 1.2543 -0.179436
0.121917 1.26327 -0.18072
0.127104 1.2543 -0.179436
0.133685 1.25928 -0.18015
0.140205 1.26327 -0.18072
0.147455 1.27324 -0.182146
0.153599 1.27324 -0.182146
-0.384275 1.13622 -0.168051
-0.374801 1.12427 -0.166283
-0.362172 1.10236 -0.163043
-0.356846 1.10236 -0.163043
-0.349297 1.09539 -0.162012
-0.343066 1.09241 -0.16157
-0.336557 1.08842 -0.160981
-0.330389 1.08543 -0.160539
-0.323951 1.08145 -0.15995
-0.318726 1.08145 -0.15995
-0.313501 1.08145 -0.15995
-0.308276 1.08145 -0.15995
-0.302214 1.07846 -0.159508
-0.297003 1.07846 -0.159508
-0.290715 1.07448 -0.158919
-0.28473 1.07149 -0.158477
-0.278774 1.06851 -0.158035
-0.273611 1.06851 -0.158035
-0.268449 1.06851 -0.158035
-0.263286 1.06851 -0.158035
-0.257161 1.06452 -0.157446
-0.251311 1.06154 -0.157004
-0.246875 1.06452 -0.157446
-0.241732 1.06452 -0.157446
-0.235925 1.06154 -0.157004
-0.230146 1.05855 -0.156562
-0.224185 1.05456 -0.155973
-0.219918 1.05855 -0.156562
-0.214803 1.05855 -0.156562
-0.2089 1.05456 -0.155973
-0.204574 1.05855 -0.156562
-0.19946 1.05855 -0.156562
-0.194346 1.05855 -0.156562
-0.189765 1.06154 -0.157004
-0.184637 1.06154 -0.157004
-0.179003 1.05855 -0.156562
-0.173234 1.05456 -0.155973
-0.168139 1.05456 -0.155973
-0.162582 1.05158 -0.155531
-0.158545 1.05855 -0.156562
-0.154874 1.06851 -0.158035
-0.149154 1.06452 -0.157446
-0.142663 1.05456 -0.155973
-0.136789 1.04859 -0.15509
-0.131722 1.04859 -0.15509
-0.126656 1.04859 -0.15509
-0.121244 1.0456 -0.154648
-0.116192 1.0456 -0.154648
-0.11114 1.0456 -0.154648
-0.106088 1.0456 -0.154648
-0.101036 1.0456 -0.154648
-0.096533 1.05158 -0.155531
-0.0914523 1.05158 -0.155531
-0.086617 1.05456 -0.155973
-0.0815219 1.05456 -0.155973
-0.0764267 1.05456 -0.155973
-0.0713316 1.05456 -0.155973
-0.0662365 1.05456 -0.155973
-0.0609682 1.05158 -0.155531
-0.0560463 1.05456 -0.155973
-0.0509512 1.05456 -0.155973
-0.045856 1.05456 -0.155973
-0.0407609 1.05456 -0.155973
-0.0358005 1.05855 -0.156562
-0.0307728 1.06154 -0.157004
-0.025644 1.06154 -0.157004
-0.0205152 1.06154 -0.157004
-0.0154297 1.06452 -0.157446
-0.0102865 1.06452 -0.157446
-0.00512879 1.06154 -0.157004
0 1.06452 -0.157446
0.00514323 1.06452 -0.157446
0.0103538 1.07149 -0.158477
0.015574 1.07448 -0.158919
0.0207076 1.07149 -0.158477
0.0258124 1.06851 -0.158035
0.0310614 1.07149 -0.158477
0.0363394 1.07448 -0.158919
0.0415307 1.07448 -0.158919
0.0471984 1.08543 -0.160539
0.0531162 1.09938 -0.162601
0.05901 1.11033 -0.164221
0.0650096 1.12128 -0.165841
0.0708649 1.12825 -0.166872
0.0763161 1.12825 -0.166872
0.0902206 1.16709 -0.172616
0.0982313 1.19597 -0.176888
0.106608 1.22584 -0.181306
0.114541 1.24775 -0.184546
0.122879 1.27165 -0.188081
0.129933 1.28061 -0.189407
0.135167 1.27165 -0.188081
0.141865 1.27663 -0.188817
0.149072 1.28559 -0.190143
0.154682 1.28061 -0.189407
-0.389327 1.14972 -0.175632
-0.376129 1.12684 -0.172138
-0.36348 1.10496 -0.168795
-0.355879 1.098 -0.167732
-0.348344 1.09104 -0.166668
-0.340877 1.08408 -0.165605
-0.334401 1.0801 -0.164997
-0.329176 1.0801 -0.164997
-0.323056 1.07712 -0.164541
-0.317846 1.07712 -0.164541
-0.31148 1.07314 -0.163933
-0.306289 1.07314 -0.163933
-0.301098 1.07314 -0.163933
-0.295084 1.07015 -0.163478
-0.289907 1.07015 -0.163478
-0.283936 1.06717 -0.163022
-0.277734 1.06319 -0.162414
-0.271826 1.06021 -0.161958
-0.266697 1.06021 -0.161958
-0.262305 1.06319 -0.162414
-0.25644 1.06021 -0.161958
-0.250604 1.05722 -0.161502
-0.246182 1.06021 -0.161958
-0.241053 1.06021 -0.161958
-0.234375 1.05325 -0.160895
-0.228631 1.05026 -0.160439
-0.22355 1.05026 -0.160439
-0.218469 1.05026 -0.160439
-0.213389 1.05026 -0.160439
-0.207716 1.04728 -0.159983
-0.202073 1.04429 -0.159527
-0.197021 1.04429 -0.159527
-0.192517 1.04728 -0.159983
-0.187451 1.04728 -0.159983
-0.182385 1.04728 -0.159983
-0.176814 1.04429 -0.159527
-0.171107 1.04032 -0.15892
-0.166075 1.04032 -0.15892
-0.16058 1.03733 -0.158464
-0.15601 1.04032 -0.15892
-0.15242 1.05026 -0.160439
-0.146503 1.04429 -0.159527
-0.140104 1.03435 -0.158008
-0.1351 1.03435 -0.158008
-0.130096 1.03435 -0.158008
-0.125093 1.03435 -0.158008
-0.119396 1.02838 -0.157097
-0.113757 1.02241 -0.156185
-0.109129 1.0254 -0.156641
-0.104168 1.0254 -0.156641
-0.0994967 1.02838 -0.157097
-0.0947961 1.03137 -0.157552
-0.0900666 1.03435 -0.158008
-0.0853083 1.03733 -0.158464
-0.0802902 1.03733 -0.158464
-0.075272 1.03733 -0.158464
-0.0702539 1.03733 -0.158464
-0.0652358 1.03733 -0.158464
-0.0602176 1.03733 -0.158464
-0.0551995 1.03733 -0.158464
-0.0503257 1.04032 -0.15892
-0.0452931 1.04032 -0.15892
-0.0402606 1.04032 -0.15892
-0.0353627 1.04429 -0.159527
-0.0303109 1.04429 -0.159527
-0.0252591 1.04429 -0.159527
-0.020265 1.04728 -0.159983
-0.0151987 1.04728 -0.159983
-0.0101325 1.04728 -0.159983
-0.00506625 1.04728 -0.159983
0 1.04728 -0.159983
0.00508068 1.05026 -0.160439
0.0102287 1.05722 -0.161502
0.0154297 1.06319 -0.162414
0.0206499 1.06717 -0.163022
0.025644 1.06021 -0.161958
0.0306862 1.05722 -0.161502
0.0360026 1.06319 -0.162414
0.0411458 1.06319 -0.162414
0.0467221 1.07314 -0.163933
0.052587 1.08706 -0.16606
0.0585866 1.10099 -0.168187
0.0647787 1.1159 -0.170466
0.0706147 1.12287 -0.17153
0.0905285 1.16961 -0.178671
0.106608 1.22431 -0.187027
0.114541 1.24619 -0.190369
0.123361 1.27503 -0.194775
0.130438 1.28399 -0.196143
0.13612 1.27901 -0.195383
0.141865 1.27503 -0.194775
0.148494 1.27901 -0.195383
0.154682 1.27901 -0.195383
-0.362172 1.09961 -0.173332
-0.354589 1.09265 -0.172236
-0.346121 1.08272 -0.17067
-0.338688 1.07577 -0.169574
-0.332246 1.07179 -0.168948
-0.328267 1.07577 -0.169574
-0.321863 1.07179 -0.168948
-0.316672 1.07179 -0.168948
-0.31148 1.07179 -0.168948
-0.305438 1.06881 -0.168478
-0.299423 1.06583 -0.168008
-0.293164 1.06186 -0.167382
-0.289099 1.06583 -0.168008
-0.282084 1.05888 -0.166912
-0.276175 1.0559 -0.166443
-0.271061 1.0559 -0.166443
-0.265947 1.0559 -0.166443
-0.260832 1.0559 -0.166443
-0.254756 1.05193 -0.165816
-0.248953 1.04895 -0.165347
-0.243873 1.04895 -0.165347
-0.240375 1.0559 -0.166443
-0.233711 1.04895 -0.165347
-0.226466 1.03901 -0.163781
-0.220798 1.03603 -0.163311
-0.21578 1.03603 -0.163311
-0.210155 1.03305 -0.162841
-0.205152 1.03305 -0.162841
-0.198416 1.02411 -0.161432
-0.194581 1.03007 -0.162372
-0.189592 1.03007 -0.162372
-0.184603 1.03007 -0.162372
-0.179614 1.03007 -0.162372
-0.174119 1.02709 -0.161902
-0.169144 1.02709 -0.161902
-0.163693 1.02411 -0.161432
-0.158733 1.02411 -0.161432
-0.153772 1.02411 -0.161432
-0.148379 1.02113 -0.160962
-0.142875 1.01716 -0.160336
-0.137948 1.01716 -0.160336
-0.133541 1.02113 -0.160962
-0.12897 1.02411 -0.161432
-0.12401 1.02411 -0.161432
-0.118241 1.01716 -0.160336
-0.112983 1.01418 -0.159866
-0.10807 1.01418 -0.159866
-0.103461 1.01716 -0.160336
-0.0985345 1.01716 -0.160336
-0.0936077 1.01716 -0.160336
-0.0890274 1.02113 -0.160962
-0.0848176 1.03007 -0.162372
-0.0793664 1.02411 -0.161432
-0.074406 1.02411 -0.161432
-0.0694456 1.02411 -0.161432
-0.0646729 1.02709 -0.161902
-0.059698 1.02709 -0.161902
-0.054882 1.03007 -0.162372
-0.0498927 1.03007 -0.162372
-0.0449034 1.03007 -0.162372
-0.0400296 1.03305 -0.162841
-0.0350259 1.03305 -0.162841
-0.0300222 1.03305 -0.162841
-0.0250185 1.03305 -0.162841
-0.0200148 1.03305 -0.162841
-0.0149678 1.03007 -0.162372
-0.0100074 1.03305 -0.162841
-0.00501814 1.03603 -0.163311
0 1.03901 -0.163781
0.00503257 1.03901 -0.163781
0.0101036 1.04299 -0.164407
0.0151987 1.04597 -0.164877
0.0203227 1.04895 -0.165347
0.0254034 1.04895 -0.165347
0.0305707 1.05193 -0.165816
0.0360026 1.06186 -0.167382
0.0410304 1.05888 -0.166912
0.0464623 1.06583 -0.168008
0.0522502 1.07875 -0.170044
0.0580574 1.08967 -0.171766
0.0641436 1.10358 -0.173958
0.0996218 1.20987 -0.190712
0.106954 1.22675 -0.193374
0.114999 1.2496 -0.196975
0.123361 1.27344 -0.200733
0.130438 1.28238 -0.202142
0.135697 1.27344 -0.200733
0.141311 1.26847 -0.19995
0.148033 1.27344 -0.200733
-0.359882 1.09128 -0.177348
-0.351366 1.08136 -0.175736
-0.343899 1.07442 -0.174607
-0.336499 1.06747 -0.173479
-0.331322 1.06747 -0.173479
-0.325236 1.0645 -0.172995
-0.320968 1.06747 -0.173479
-0.314911 1.0645 -0.172995
-0.308594 1.06053 -0.17235
-0.302599 1.05755 -0.171866
-0.296633 1.05458 -0.171383
-0.292341 1.05755 -0.171866
-0.287213 1.05755 -0.171866
-0.280231 1.05061 -0.170738
-0.273577 1.04466 -0.16977
-0.266726 1.03771 -0.168642
-0.260943 1.03474 -0.168158
-0.256661 1.03771 -0.168642
-0.250907 1.03474 -0.168158
-0.245181 1.03176 -0.167674
-0.240178 1.03176 -0.167674
-0.235852 1.03474 -0.168158
-0.229506 1.02878 -0.167191
-0.223868 1.02581 -0.166707
-0.218893 1.02581 -0.166707
-0.213918 1.02581 -0.166707
-0.208337 1.02283 -0.166223
-0.202785 1.01985 -0.16574
-0.196492 1.01291 -0.164611
-0.192142 1.01589 -0.165095
-0.187947 1.01985 -0.16574
-0.182289 1.01589 -0.165095
-0.177362 1.01589 -0.165095
-0.172435 1.01589 -0.165095
-0.167509 1.01589 -0.165095
-0.162106 1.01291 -0.164611
-0.156731 1.00993 -0.164128
-0.151833 1.00993 -0.164128
-0.141619 1.00696 -0.163644
-0.13714 1.00993 -0.164128
-0.132242 1.00993 -0.164128
-0.12772 1.01291 -0.164611
-0.122807 1.01291 -0.164611
-0.117549 1.00993 -0.164128
-0.112319 1.00696 -0.163644
-0.107435 1.00696 -0.163644
-0.102855 1.00993 -0.164128
-0.0979571 1.00993 -0.164128
-0.0930592 1.00993 -0.164128
-0.0881614 1.00993 -0.164128
-0.0835089 1.01291 -0.164611
-0.0785966 1.01291 -0.164611
-0.0736843 1.01291 -0.164611
-0.0689741 1.01589 -0.165095
-0.0640474 1.01589 -0.165095
-0.0591207 1.01589 -0.165095
-0.0541939 1.01589 -0.165095
-0.0494597 1.01985 -0.16574
-0.0445137 1.01985 -0.16574
-0.0396832 1.02283 -0.166223
-0.0347228 1.02283 -0.166223
-0.029849 1.02581 -0.166707
-0.0248742 1.02581 -0.166707
-0.0198416 1.02283 -0.166223
-0.0148812 1.02283 -0.166223
-0.00997854 1.02878 -0.167191
-0.0050037 1.03176 -0.167674
0 1.03176 -0.167674
0.00501814 1.03474 -0.168158
0.0100651 1.03771 -0.168642
0.0150544 1.03474 -0.168158
0.0201303 1.03771 -0.168642
0.0252591 1.04168 -0.169287
0.0303975 1.04466 -0.16977
0.0358005 1.05458 -0.171383
0.0407609 1.05061 -0.170738
0.0462891 1.06053 -0.17235
0.0519134 1.07045 -0.173962
0.0574752 1.07739 -0.175091
0.106175 1.21629 -0.197662
0.114541 1.24307 -0.202016
0.121917 1.25696 -0.204273
0.128518 1.26192 -0.205079
0.134109 1.25696 -0.204273
0.140758 1.26192 -0.205079
0.146878 1.26192 -0.205079
-0.3589 1.08694 -0.181962
-0.350076 1.07604 -0.180138
-0.341676 1.06613 -0.178479
-0.335561 1.06316 -0.177981
-0.329167 1.0592 -0.177318
-0.324023 1.0592 -0.177318
-0.31888 1.0592 -0.177318
-0.313737 1.0592 -0.177318
-0.306862 1.05325 -0.176323
-0.298909 1.04334 -0.174664
-0.293842 1.04334 -0.174664
-0.287953 1.04037 -0.174166
-0.282902 1.04037 -0.174166
-0.275997 1.03344 -0.173005
-0.2702 1.03046 -0.172508
-0.263666 1.02452 -0.171512
-0.258691 1.02452 -0.171512
-0.252244 1.01857 -0.170517
-0.24802 1.02155 -0.171015
-0.242352 1.01857 -0.170517
-0.237406 1.01857 -0.170517
-0.230199 1.00867 -0.168859
-0.227514 1.01857 -0.170517
-0.222569 1.01857 -0.170517
-0.218258 1.02155 -0.171015
-0.211849 1.01461 -0.169854
-0.206922 1.01461 -0.169854
-0.201404 1.01164 -0.169356
-0.195914 1.00867 -0.168859
-0.191579 1.01164 -0.169356
-0.186118 1.00867 -0.168859
-0.180687 1.00569 -0.168361
-0.175803 1.00569 -0.168361
-0.17092 1.00569 -0.168361
-0.166036 1.00569 -0.168361
-0.160677 1.00272 -0.167863
-0.154884 0.996776 -0.166868
-0.150491 0.999748 -0.167366
-0.145637 0.999748 -0.167366
-0.139945 0.993803 -0.16637
-0.135119 0.993803 -0.16637
-0.130294 0.993803 -0.16637
-0.125468 0.993803 -0.16637
-0.120642 0.993803 -0.16637
-0.116163 0.996776 -0.166868
-0.110991 0.993803 -0.16637
-0.106165 0.993803 -0.16637
-0.101339 0.993803 -0.16637
-0.0968024 0.996776 -0.166868
-0.0919623 0.996776 -0.166868
-0.0871222 0.996776 -0.166868
-0.082282 0.996776 -0.166868
-0.0776729 0.999748 -0.167366
-0.0730348 1.00272 -0.167863
-0.0681658 1.00272 -0.167863
-0.0632968 1.00272 -0.167863
-0.0586011 1.00569 -0.168361
-0.0538764 1.00867 -0.168859
-0.0489785 1.00867 -0.168859
-0.0440807 1.00867 -0.168859
-0.0392983 1.01164 -0.169356
-0.0344871 1.01461 -0.169854
-0.0295603 1.01461 -0.169854
-0.0247298 1.01857 -0.170517
-0.0197839 1.01857 -0.170517
-0.0148812 1.02155 -0.171015
-0.00994967 1.02452 -0.171512
-0.00497484 1.02452 -0.171512
0 1.02749 -0.17201
0.00501814 1.03344 -0.173005
0.0100651 1.03641 -0.173503
0.0150111 1.03046 -0.172508
0.0200148 1.03046 -0.172508
0.0251628 1.03641 -0.173503
0.0303109 1.04037 -0.174166
0.0353627 1.04037 -0.174166
0.0404145 1.04037 -0.174166
0.045856 1.04929 -0.175659
0.0516247 1.06316 -0.177981
0.056946 1.06613 -0.178479
0.0629312 1.08001 -0.180801
0.114541 1.24151 -0.207839
0.121051 1.24647 -0.208668
0.132627 1.24151 -0.207839
0.139209 1.24647 -0.208668
0.145839 1.25142 -0.209497
-0.350076 1.07469 -0.185185
-0.341676 1.06479 -0.18348
-0.335561 1.06183 -0.182968
-0.329167 1.05787 -0.182286
-0.324023 1.05787 -0.182286
-0.320073 1.06183 -0.182968
-0.313737 1.05787 -0.182286
-0.304841 1.045 -0.180069
-0.298057 1.03906 -0.179046
-0.293005 1.03906 -0.179046
-0.285211 1.02917 -0.177341
-0.277782 1.02026 -0.175806
-0.272822 1.02026 -0.175806
-0.267862 1.02026 -0.175806
-0.262136 1.01729 -0.175295
-0.25619 1.01334 -0.174613
-0.250527 1.01037 -0.174101
-0.245614 1.01037 -0.174101
-0.239995 1.0074 -0.173589
-0.235097 1.0074 -0.173589
-0.229521 1.00443 -0.173078
-0.224637 1.00443 -0.173078
-0.219104 1.00146 -0.172566
-0.209366 1.00146 -0.172566
-0.204497 1.00146 -0.172566
-0.199037 0.998492 -0.172055
-0.193605 0.995523 -0.171543
-0.189328 0.998492 -0.172055
-0.184473 0.998492 -0.172055
-0.179084 0.995523 -0.171543
-0.174764 0.998492 -0.172055
-0.169909 0.998492 -0.172055
-0.159248 0.992554 -0.171032
-0.154422 0.992554 -0.171032
-0.149149 0.989585 -0.17052
-0.143616 0.984638 -0.169668
-0.13841 0.981669 -0.169156
-0.134446 0.987606 -0.170179
-0.129644 0.987606 -0.170179
-0.124842 0.987606 -0.170179
-0.11968 0.984638 -0.169668
-0.115239 0.987606 -0.170179
-0.110437 0.987606 -0.170179
-0.105636 0.987606 -0.170179
-0.101036 0.989585 -0.17052
-0.096225 0.989585 -0.17052
-0.091688 0.992554 -0.171032
-0.0871222 0.995523 -0.171543
-0.082282 0.995523 -0.171543
-0.0774419 0.995523 -0.171543
-0.0728183 0.998492 -0.172055
-0.0679637 0.998492 -0.172055
-0.0631092 0.998492 -0.172055
-0.0584278 1.00146 -0.172566
-0.0535589 1.00146 -0.172566
-0.0486899 1.00146 -0.172566
-0.0439508 1.00443 -0.173078
-0.0390674 1.00443 -0.173078
-0.0341839 1.00443 -0.173078
-0.0293871 1.0074 -0.173589
-0.0244893 1.0074 -0.173589
-0.0195914 1.0074 -0.173589
-0.0147802 1.01334 -0.174613
-0.00985345 1.01334 -0.174613
-0.00492672 1.01334 -0.174613
0 1.01334 -0.174613
0.00497484 1.02323 -0.176318
0.00997854 1.0262 -0.176829
0.0149678 1.0262 -0.176829
0.0198993 1.02323 -0.176318
0.0250185 1.02917 -0.177341
0.0301954 1.03511 -0.178364
0.035228 1.03511 -0.178364
0.0404145 1.03906 -0.179046
0.0455962 1.04203 -0.179558
0.0509512 1.04797 -0.180581
0.0560463 1.04797 -0.180581
0.106954 1.22214 -0.210592
0.115456 1.24985 -0.215367
0.140205 1.2538 -0.216049
0.150227 1.28745 -0.221847
-0.3589 1.08421 -0.192159
-0.34782 1.06642 -0.189006
-0.342629 1.06642 -0.189006
-0.336499 1.06345 -0.18848
-0.328243 1.05357 -0.186728
-0.322205 1.05061 -0.186203
-0.317985 1.05357 -0.186728
-0.310802 1.04665 -0.185502
-0.303975 1.04072 -0.184451
-0.296922 1.0338 -0.183225
-0.289378 1.02491 -0.181649
-0.28192 1.01601 -0.180072
-0.27428 1.00613 -0.17832
-0.269382 1.00613 -0.17832
-0.264484 1.00613 -0.17832
-0.258821 1.00317 -0.177795
-0.253187 1.0002 -0.177269
-0.247582 0.997235 -0.176744
-0.242728 0.997235 -0.176744
-0.237873 0.997235 -0.176744
-0.232326 0.99427 -0.176218
-0.227486 0.99427 -0.176218
-0.222646 0.99427 -0.176218
-0.217156 0.991305 -0.175693
-0.21233 0.991305 -0.175693
-0.208125 0.99427 -0.176218
-0.202073 0.98834 -0.175167
-0.197261 0.98834 -0.175167
-0.19245 0.98834 -0.175167
-0.187264 0.986364 -0.174817
-0.182462 0.986364 -0.174817
-0.17766 0.986364 -0.174817
-0.172339 0.983399 -0.174292
-0.168057 0.986364 -0.174817
-0.162765 0.983399 -0.174292
-0.157977 0.983399 -0.174292
-0.15319 0.983399 -0.174292
-0.148403 0.983399 -0.174292
-0.143183 0.980433 -0.173766
-0.13841 0.980433 -0.173766
-0.134041 0.983399 -0.174292
-0.128865 0.980433 -0.173766
-0.124092 0.980433 -0.173766
-0.11968 0.983399 -0.174292
-0.114893 0.983399 -0.174292
-0.110106 0.983399 -0.174292
-0.105318 0.983399 -0.174292
-0.100531 0.983399 -0.174292
-0.0957439 0.983399 -0.174292
-0.091231 0.986364 -0.174817
-0.0864293 0.986364 -0.174817
-0.0817913 0.98834 -0.175167
-0.07698 0.98834 -0.175167
-0.0723853 0.991305 -0.175693
-0.0677617 0.99427 -0.176218
-0.0631092 0.997235 -0.176744
-0.0584278 1.0002 -0.177269
-0.0534001 0.997235 -0.176744
-0.0485455 0.997235 -0.176744
-0.0438209 1.0002 -0.177269
-0.0390674 1.00317 -0.177795
-0.0341839 1.00317 -0.177795
-0.0293005 1.00317 -0.177795
-0.0244171 1.00317 -0.177795
-0.0195337 1.00317 -0.177795
-0.0147369 1.0091 -0.178846
-0.00982458 1.0091 -0.178846
-0.00492672 1.01206 -0.179371
0 1.01601 -0.180072
0.0049604 1.01898 -0.180598
0.0099208 1.01898 -0.180598
0.0148812 1.01898 -0.180598
0.0198993 1.02194 -0.181123
0.0249463 1.02491 -0.181649
0.0300222 1.02787 -0.182174
0.035127 1.03084 -0.1827
0.0402606 1.0338 -0.183225
0.0455962 1.04072 -0.184451
0.0508068 1.04369 -0.184977
0.056258 1.05061 -0.186203
-0.342629 1.06508 -0.19402
-0.33431 1.0552 -0.192222
-0.328243 1.05224 -0.191682
-0.320992 1.04533 -0.190424
-0.313213 1.03645 -0.188805
-0.308161 1.03645 -0.188805
-0.300222 1.02658 -0.187007
-0.293515 1.02066 -0.185928
-0.287703 1.01769 -0.185389
-0.28 1.00782 -0.183591
-0.27428 1.00486 -0.183051
-0.268588 1.0019 -0.182512
-0.263705 1.0019 -0.182512
-0.258056 0.99894 -0.181972
-0.253187 0.99894 -0.181972
-0.246846 0.993018 -0.180894
-0.242006 0.993018 -0.180894
-0.237166 0.993018 -0.180894
-0.231633 0.990056 -0.180354
-0.226129 0.987095 -0.179815
-0.221318 0.987095 -0.179815
-0.216073 0.985121 -0.179455
-0.211272 0.985121 -0.179455
-0.20647 0.985121 -0.179455
-0.201668 0.985121 -0.179455
-0.196867 0.985121 -0.179455
-0.192065 0.985121 -0.179455
-0.186701 0.982159 -0.178916
-0.182462 0.985121 -0.179455
-0.177126 0.982159 -0.178916
-0.171819 0.979198 -0.178376
-0.167047 0.979198 -0.178376
-0.162274 0.979198 -0.178376
-0.157501 0.979198 -0.178376
-0.152728 0.979198 -0.178376
-0.147956 0.979198 -0.178376
-0.143183 0.979198 -0.178376
-0.13841 0.979198 -0.178376
-0.134041 0.982159 -0.178916
-0.128865 0.979198 -0.178376
-0.124092 0.979198 -0.178376
-0.11968 0.982159 -0.178916
-0.114893 0.982159 -0.178916
-0.110106 0.982159 -0.178916
-0.105318 0.982159 -0.178916
-0.100531 0.982159 -0.178916
-0.0957439 0.982159 -0.178916
-0.0909567 0.982159 -0.178916
-0.0859097 0.979198 -0.178376
-0.081137 0.979198 -0.178376
-0.0765951 0.982159 -0.178916
-0.0718079 0.982159 -0.178916
-0.0672228 0.985121 -0.179455
-0.0627339 0.990056 -0.180354
-0.0580814 0.993018 -0.180894
-0.0532413 0.993018 -0.180894
-0.0484012 0.993018 -0.180894
-0.043691 0.995979 -0.181433
-0.0389519 0.99894 -0.181972
-0.0340829 0.99894 -0.181972
-0.0292139 0.99894 -0.181972
-0.0244171 1.0019 -0.182512
-0.0195914 1.00486 -0.183051
-0.0147369 1.00782 -0.183591
-0.00982458 1.00782 -0.183591
-0.00492672 1.01079 -0.18413
0 1.01473 -0.18485
0.0049604 1.01769 -0.185389
0.00994967 1.02066 -0.185928
0.0148812 1.01769 -0.185389
0.0198416 1.01769 -0.185389
0.0248742 1.02066 -0.185928
0.0300222 1.02658 -0.187007
0.035127 1.02954 -0.187547
0.0401451 1.02954 -0.187547
0.0454663 1.03645 -0.188805
0.0508068 1.04237 -0.189884
0.0560463 1.04533 -0.190424
0.0619497 1.05915 -0.192941
0.0968409 1.16872 -0.212901
-0.340723 1.05782 -0.197928
-0.333372 1.05092 -0.196637
-0.327319 1.04796 -0.196083
-0.322205 1.04796 -0.196083
-0.311124 1.02824 -0.192394
-0.303465 1.01937 -0.190734
-0.296758 1.01345 -0.189627
-0.290677 1.00951 -0.188889
-0.284076 1.0036 -0.187782
-0.278355 1.00064 -0.187229
-0.272663 0.99768 -0.186676
-0.267794 0.99768 -0.186676
-0.262146 0.994722 -0.186122
-0.257291 0.994722 -0.186122
-0.252437 0.994722 -0.186122
-0.24611 0.988807 -0.185015
-0.242006 0.991765 -0.185569
-0.236459 0.988807 -0.185015
-0.23094 0.98585 -0.184462
-0.226129 0.98585 -0.184462
-0.221318 0.98585 -0.184462
-0.216073 0.983878 -0.184093
-0.210002 0.977963 -0.182986
-0.205229 0.977963 -0.182986
-0.201062 0.98092 -0.18354
-0.196275 0.98092 -0.18354
-0.190333 0.975005 -0.182433
-0.185575 0.975005 -0.182433
-0.182462 0.983878 -0.184093
-0.176592 0.977963 -0.182986
-0.17078 0.972048 -0.18188
-0.166542 0.975005 -0.182433
-0.161783 0.975005 -0.182433
-0.156549 0.972048 -0.18188
-0.152267 0.975005 -0.182433
-0.147956 0.977963 -0.182986
-0.143183 0.977963 -0.182986
-0.138829 0.98092 -0.18354
-0.134041 0.98092 -0.18354
-0.128865 0.977963 -0.182986
-0.124092 0.977963 -0.182986
-0.11968 0.98092 -0.18354
-0.1142 0.975005 -0.182433
-0.109774 0.977963 -0.182986
-0.105001 0.977963 -0.182986
-0.100531 0.98092 -0.18354
-0.0957439 0.98092 -0.18354
-0.0909567 0.98092 -0.18354
-0.0859097 0.977963 -0.182986
-0.081137 0.977963 -0.182986
-0.0765951 0.98092 -0.18354
-0.0718079 0.98092 -0.18354
-0.0670207 0.98092 -0.18354
-0.0624212 0.983878 -0.184093
-0.057735 0.98585 -0.184462
-0.0530825 0.988807 -0.185015
-0.0484012 0.991765 -0.185569
-0.043691 0.994722 -0.186122
-0.0389519 0.99768 -0.186676
-0.0340829 0.99768 -0.186676
-0.0292139 0.99768 -0.186676
-0.0244171 1.00064 -0.187229
-0.0196492 1.00655 -0.188336
-0.0147802 1.00951 -0.188889
-0.0099208 1.01641 -0.19018
-0.00494597 1.01345 -0.189627
0 1.01345 -0.189627
0.00497484 1.01937 -0.190734
0.00997854 1.02233 -0.191287
0.0149678 1.02233 -0.191287
0.0199571 1.02233 -0.191287
0.0250185 1.02528 -0.191841
0.0301088 1.02824 -0.192394
0.035228 1.0312 -0.192947
0.0404145 1.03514 -0.193685
0.0454663 1.03514 -0.193685
0.0508068 1.04106 -0.194792
0.0560463 1.04401 -0.195345
0.0617187 1.05387 -0.19719
0.0892968 1.14359 -0.213976
0.0958594 1.15542 -0.21619
0.10323 1.17513 -0.219879
-0.330244 1.03974 -0.199699
-0.321161 1.02694 -0.197241
-0.314324 1.02103 -0.196106
-0.30665 1.01217 -0.194404
-0.29965 1.00528 -0.193081
-0.293871 1.00233 -0.192513
-0.288973 1.00233 -0.192513
-0.283238 0.999374 -0.191946
-0.277532 0.99642 -0.191379
-0.271855 0.993466 -0.190811
-0.267 0.993466 -0.190811
-0.261366 0.990512 -0.190244
-0.255761 0.987558 -0.189677
-0.250185 0.984604 -0.189109
-0.245374 0.984604 -0.189109
-0.240563 0.984604 -0.189109
-0.23528 0.982635 -0.188731
-0.229093 0.976728 -0.187596
-0.22432 0.976728 -0.187596
-0.220211 0.979681 -0.188164
-0.215424 0.979681 -0.188164
-0.209366 0.973774 -0.187029
-0.203367 0.967866 -0.185894
-0.19985 0.973774 -0.187029
-0.195091 0.973774 -0.187029
-0.190333 0.973774 -0.187029
-0.185575 0.973774 -0.187029
-0.180816 0.973774 -0.187029
-0.175524 0.97082 -0.186462
-0.17078 0.97082 -0.186462
-0.166036 0.97082 -0.186462
-0.161783 0.973774 -0.187029
-0.156549 0.97082 -0.186462
-0.151805 0.97082 -0.186462
-0.147508 0.973774 -0.187029
-0.143183 0.976728 -0.187596
-0.13841 0.976728 -0.187596
-0.133637 0.976728 -0.187596
-0.128865 0.976728 -0.187596
-0.124092 0.976728 -0.187596
-0.119319 0.976728 -0.187596
-0.1142 0.973774 -0.187029
-0.109442 0.973774 -0.187029
-0.104366 0.97082 -0.186462
-0.100228 0.976728 -0.187596
-0.0960326 0.982635 -0.188731
-0.0909567 0.979681 -0.188164
-0.0859097 0.976728 -0.187596
-0.0813823 0.979681 -0.188164
-0.0763642 0.976728 -0.187596
-0.0715914 0.976728 -0.187596
-0.0670207 0.979681 -0.188164
-0.0620459 0.976728 -0.187596
-0.0576196 0.982635 -0.188731
-0.0530825 0.987558 -0.189677
-0.0484012 0.990512 -0.190244
-0.043691 0.993466 -0.190811
-0.0389519 0.99642 -0.191379
-0.0340829 0.99642 -0.191379
-0.0293005 0.999374 -0.191946
-0.0244893 1.00233 -0.192513
-0.0196492 1.00528 -0.193081
-0.0148379 1.01217 -0.194404
-0.0099208 1.01513 -0.194972
-0.00497484 1.01808 -0.195539
0 1.01808 -0.195539
0.00497484 1.01808 -0.195539
0.00997854 1.02103 -0.196106
0.0149678 1.02103 -0.196106
0.0200148 1.02399 -0.196674
0.0251628 1.0299 -0.197808
0.0303109 1.03383 -0.198565
0.0354637 1.03679 -0.199132
0.0404145 1.03383 -0.198565
0.0455962 1.03679 -0.199132
0.0509512 1.0427 -0.200267
0.0564167 1.04959 -0.201591
0.0619497 1.05648 -0.202914
0.0683631 1.07617 -0.206697
0.0748342 1.0939 -0.2101
0.0820559 1.1195 -0.215017
0.088681 1.13426 -0.217854
0.0945507 1.1382 -0.21861
-0.322084 1.02859 -0.202669
-0.313415 1.01679 -0.200344
-0.305457 1.00696 -0.198407
-0.29965 1.00401 -0.197826
-0.293871 1.00106 -0.197244
-0.288122 0.99811 -0.196663
-0.282401 0.99516 -0.196082
-0.27671 0.992209 -0.1955
-0.271047 0.989259 -0.194919
-0.267 0.992209 -0.1955
-0.260587 0.986309 -0.194338
-0.254486 0.981393 -0.193369
-0.247433 0.972542 -0.191625
-0.243411 0.975492 -0.192207
-0.23936 0.978442 -0.192788
-0.233865 0.975492 -0.192207
-0.2284 0.972542 -0.191625
-0.223641 0.972542 -0.191625
-0.218883 0.972542 -0.191625
-0.214774 0.975492 -0.192207
-0.211272 0.981393 -0.193369
-0.205229 0.975492 -0.192207
-0.197021 0.958775 -0.188913
-0.1945 0.969592 -0.191044
-0.19091 0.975492 -0.192207
-0.185012 0.969592 -0.191044
-0.17972 0.966642 -0.190463
-0.176058 0.972542 -0.191625
-0.1713 0.972542 -0.191625
-0.166036 0.969592 -0.191044
-0.161783 0.972542 -0.191625
-0.157025 0.972542 -0.191625
-0.152267 0.972542 -0.191625
-0.147061 0.969592 -0.191044
-0.142317 0.969592 -0.191044
-0.137992 0.972542 -0.191625
-0.133233 0.972542 -0.191625
-0.128865 0.975492 -0.192207
-0.123717 0.972542 -0.191625
-0.118958 0.972542 -0.191625
-0.114546 0.975492 -0.192207
-0.109442 0.972542 -0.191625
-0.104366 0.969592 -0.191044
-0.100228 0.975492 -0.192207
-0.0957439 0.978442 -0.192788
-0.091231 0.981393 -0.193369
-0.0859097 0.975492 -0.192207
-0.081137 0.975492 -0.192207
-0.0765951 0.978442 -0.192788
-0.0720244 0.981393 -0.193369
-0.0668187 0.975492 -0.192207
-0.0624212 0.981393 -0.193369
-0.0576196 0.981393 -0.193369
-0.0530825 0.986309 -0.194338
-0.0484012 0.989259 -0.194919
-0.043691 0.992209 -0.1955
-0.0390674 0.99811 -0.196663
-0.0341839 0.99811 -0.196663
-0.0293871 1.00106 -0.197244
-0.0244893 1.00106 -0.197244
-0.0197069 1.00696 -0.198407
-0.0148379 1.01089 -0.199182
-0.00994967 1.01679 -0.200344
-0.00497484 1.01679 -0.200344
0 1.01679 -0.200344
0.00497484 1.01679 -0.200344
0.00994967 1.01679 -0.200344
0.0149678 1.01974 -0.200926
0.0199571 1.01974 -0.200926
0.0250907 1.02564 -0.202088
0.0303109 1.03253 -0.203444
0.0354637 1.03548 -0.204026
0.0406455 1.03843 -0.204607
0.0455962 1.03548 -0.204026
0.0508068 1.03843 -0.204607
0.0571048 1.06104 -0.209063
0.0629312 1.07186 -0.211195
0.0677376 1.06498 -0.209838
0.0806847 1.0994 -0.21662
-0.305457 1.00568 -0.203166
-0.298769 0.999792 -0.201975
-0.294737 1.00274 -0.20257
-0.288122 0.996846 -0.20138
-0.282401 0.993899 -0.200785
-0.275887 0.988007 -0.199594
-0.270238 0.98506 -0.198999
-0.264619 0.982114 -0.198404
-0.259288 0.98015 -0.198007
-0.254486 0.98015 -0.198007
-0.248184 0.974257 -0.196817
-0.243411 0.974257 -0.196817
-0.23936 0.977203 -0.197412
-0.233865 0.974257 -0.196817
-0.229093 0.974257 -0.196817
-0.224998 0.977203 -0.197412
-0.220211 0.977203 -0.197412
-0.214125 0.971311 -0.196222
-0.209366 0.971311 -0.196222
-0.203987 0.968364 -0.195626
-0.19985 0.971311 -0.196222
-0.195683 0.974257 -0.196817
-0.19091 0.974257 -0.196817
-0.186138 0.974257 -0.196817
-0.180816 0.971311 -0.196222
-0.176058 0.971311 -0.196222
-0.17078 0.968364 -0.195626
-0.166036 0.968364 -0.195626
-0.161783 0.971311 -0.196222
-0.157025 0.971311 -0.196222
-0.15319 0.977203 -0.197412
-0.148403 0.977203 -0.197412
-0.143183 0.974257 -0.196817
-0.138829 0.977203 -0.197412
-0.134041 0.977203 -0.197412
-0.129254 0.977203 -0.197412
-0.123717 0.971311 -0.196222
-0.118597 0.968364 -0.195626
-0.113853 0.968364 -0.195626
-0.10911 0.968364 -0.195626
-0.103731 0.962472 -0.194436
-0.0993187 0.965418 -0.195031
-0.0954552 0.974257 -0.196817
-0.0906825 0.974257 -0.196817
-0.0859097 0.974257 -0.196817
-0.0806462 0.968364 -0.195626
-0.0765951 0.977203 -0.197412
-0.0720244 0.98015 -0.198007
-0.0668187 0.974257 -0.196817
-0.0622335 0.977203 -0.197412
-0.0574464 0.977203 -0.197412
-0.0528179 0.98015 -0.198007
-0.0481125 0.982114 -0.198404
-0.043691 0.990953 -0.20019
-0.0391828 0.999792 -0.201975
-0.034285 0.999792 -0.201975
-0.0294737 1.00274 -0.20257
-0.0246336 1.00568 -0.203166
-0.0197839 1.00961 -0.203959
-0.0148812 1.01256 -0.204555
-0.00994967 1.01551 -0.20515
-0.00497484 1.01551 -0.20515
0 1.01256 -0.204555
0.00494597 1.00961 -0.203959
0.00994967 1.01551 -0.20515
0.0149678 1.01845 -0.205745
0.0199571 1.01845 -0.205745
0.0249463 1.01845 -0.205745
0.0299356 1.01845 -0.205745
0.035228 1.02729 -0.207531
0.0407609 1.04006 -0.21011
0.0461592 1.04693 -0.211499
0.0516247 1.05381 -0.212887
-0.30844 1.01422 -0.209955
-0.30053 1.00441 -0.207925
-0.293871 0.998524 -0.206706
-0.288122 0.995582 -0.206097
-0.283238 0.995582 -0.206097
-0.27671 0.989697 -0.204879
-0.271047 0.986754 -0.20427
-0.266207 0.986754 -0.20427
-0.259808 0.980869 -0.203051
-0.254996 0.980869 -0.203051
-0.249685 0.978907 -0.202645
-0.244147 0.975964 -0.202036
-0.23936 0.975964 -0.202036
-0.233865 0.973022 -0.201427
-0.229093 0.973022 -0.201427
-0.224998 0.975964 -0.202036
-0.219547 0.973022 -0.201427
-0.214125 0.970079 -0.200818
-0.208731 0.967137 -0.200209
-0.204608 0.970079 -0.200818
-0.19985 0.970079 -0.200818
-0.195091 0.970079 -0.200818
-0.19091 0.973022 -0.201427
-0.185575 0.970079 -0.200818
-0.180268 0.967137 -0.200209
-0.176058 0.970079 -0.200818
-0.1713 0.970079 -0.200818
-0.165531 0.964194 -0.199599
-0.161292 0.967137 -0.200209
-0.157501 0.973022 -0.201427
-0.15319 0.975964 -0.202036
-0.148403 0.975964 -0.202036
-0.142317 0.967137 -0.200209
-0.13841 0.973022 -0.201427
-0.134041 0.975964 -0.202036
-0.128865 0.973022 -0.201427
-0.123341 0.967137 -0.200209
-0.118597 0.967137 -0.200209
-0.1142 0.970079 -0.200818
-0.109442 0.970079 -0.200818
-0.104366 0.967137 -0.200209
-0.0993187 0.964194 -0.199599
-0.0948779 0.967137 -0.200209
-0.0904082 0.970079 -0.200818
-0.0859097 0.973022 -0.201427
-0.081137 0.973022 -0.201427
-0.0763642 0.973022 -0.201427
-0.0718079 0.975964 -0.202036
-0.0668187 0.973022 -0.201427
-0.0622335 0.975964 -0.202036
-0.057735 0.980869 -0.203051
-0.0532413 0.986754 -0.20427
-0.0485455 0.989697 -0.204879
-0.0439508 0.995582 -0.206097
-0.0391828 0.998524 -0.206706
-0.034386 1.00147 -0.207315
-0.0296758 1.00833 -0.208737
-0.024802 1.01128 -0.209346
-0.0198993 1.01422 -0.209955
-0.0149245 1.01422 -0.209955
-0.00997854 1.01716 -0.210564
-0.00497484 1.01422 -0.209955
0 1.00833 -0.208737
0.0049604 1.01128 -0.209346
0.00994967 1.01422 -0.209955
0.0150111 1.0201 -0.211173
0.0198416 1.01128 -0.209346
0.0245614 1.00147 -0.207315
0.0296758 1.00833 -0.208737
0.0349249 1.01716 -0.210564
0.0406455 1.0358 -0.214422
0.0462891 1.04855 -0.217062
0.0511436 1.04266 -0.215844
-0.314107 1.03154 -0.218707
-0.305226 1.01881 -0.216007
-0.29849 1.01293 -0.21476
-0.290677 1.00313 -0.212683
-0.284076 0.997257 -0.211437
-0.278355 0.994318 -0.210814
-0.272663 0.991379 -0.210191
-0.267794 0.991379 -0.210191
-0.261366 0.985501 -0.208945
-0.255761 0.982562 -0.208322
-0.250936 0.982562 -0.208322
-0.245374 0.979624 -0.207699
-0.240563 0.979624 -0.207699
-0.234573 0.974725 -0.20666
-0.229785 0.974725 -0.20666
-0.22432 0.971787 -0.206037
-0.219547 0.971787 -0.206037
-0.214774 0.971787 -0.206037
-0.209366 0.968848 -0.205414
-0.204608 0.968848 -0.205414
-0.19985 0.968848 -0.205414
-0.195091 0.968848 -0.205414
-0.19091 0.971787 -0.206037
-0.186138 0.971787 -0.206037
-0.180816 0.968848 -0.205414
-0.176058 0.968848 -0.205414
-0.1713 0.968848 -0.205414
-0.166036 0.965909 -0.204791
-0.161783 0.968848 -0.205414
-0.157025 0.968848 -0.205414
-0.152728 0.971787 -0.206037
-0.148403 0.974725 -0.20666
-0.143183 0.971787 -0.206037
-0.138829 0.974725 -0.20666
-0.134041 0.974725 -0.20666
-0.129254 0.974725 -0.20666
-0.123717 0.968848 -0.205414
-0.119319 0.971787 -0.206037
-0.114546 0.971787 -0.206037
-0.110106 0.974725 -0.20666
-0.105318 0.974725 -0.20666
-0.100531 0.974725 -0.20666
-0.0957439 0.974725 -0.20666
-0.0904082 0.968848 -0.205414
-0.0859097 0.971787 -0.206037
-0.0816277 0.977664 -0.207283
-0.0765951 0.974725 -0.20666
-0.0720244 0.977664 -0.207283
-0.0672228 0.977664 -0.207283
-0.0625463 0.979624 -0.207699
-0.0579082 0.982562 -0.208322
-0.0534001 0.98844 -0.209568
-0.0488342 0.994318 -0.210814
-0.0440807 0.997257 -0.211437
-0.0392983 1.0002 -0.21206
-0.0346218 1.00705 -0.213514
-0.0296758 1.00705 -0.213514
-0.024802 1.00999 -0.214137
-0.0198416 1.00999 -0.214137
-0.0149245 1.01293 -0.21476
-0.0100074 1.01881 -0.216007
-0.00497484 1.01293 -0.21476
0 1.00705 -0.213514
0.00494597 1.00705 -0.213514
0.00985345 1.00313 -0.212683
0.0148812 1.00999 -0.214137
0.0197839 1.00705 -0.213514
0.0247298 1.00705 -0.213514
0.0296758 1.00705 -0.213514
0.0344871 1.00313 -0.212683
0.0394138 1.00313 -0.212683
-0.315791 1.05273 -0.228484
-0.307728 1.04295 -0.226361
-0.298057 1.0273 -0.222963
-0.28854 1.01164 -0.219566
-0.280823 1.00186 -0.217442
-0.27428 0.995989 -0.216168
-0.268588 0.993054 -0.215531
-0.263705 0.993054 -0.215531
-0.258056 0.990119 -0.214894
-0.251686 0.984249 -0.21362
-0.24611 0.981313 -0.212983
-0.240563 0.978378 -0.212346
-0.23528 0.976422 -0.211921
-0.230478 0.976422 -0.211921
-0.224998 0.973486 -0.211284
-0.220875 0.976422 -0.211921
-0.215424 0.973486 -0.211284
-0.210002 0.970551 -0.210647
-0.20647 0.976422 -0.211921
-0.201668 0.976422 -0.211921
-0.196867 0.976422 -0.211921
-0.191488 0.973486 -0.211284
-0.186138 0.970551 -0.210647
-0.181365 0.970551 -0.210647
-0.176592 0.970551 -0.210647
-0.1713 0.967616 -0.21001
-0.166542 0.967616 -0.21001
-0.162274 0.970551 -0.210647
-0.157501 0.970551 -0.210647
-0.152728 0.970551 -0.210647
-0.148403 0.973486 -0.211284
-0.14275 0.967616 -0.21001
-0.13841 0.970551 -0.210647
-0.134041 0.973486 -0.211284
-0.129254 0.973486 -0.211284
-0.124467 0.973486 -0.211284
-0.120041 0.976422 -0.211921
-0.115816 0.981313 -0.212983
-0.110659 0.978378 -0.212346
-0.105848 0.978378 -0.212346
-0.101339 0.981313 -0.212983
-0.096225 0.978378 -0.212346
-0.0914138 0.978378 -0.212346
-0.0866025 0.978378 -0.212346
-0.0817913 0.978378 -0.212346
-0.07698 0.978378 -0.212346
-0.0721688 0.978378 -0.212346
-0.0673575 0.978378 -0.212346
-0.0625463 0.978378 -0.212346
-0.0579082 0.981313 -0.212983
-0.0534001 0.987184 -0.214257
-0.0488342 0.993054 -0.215531
-0.0440807 0.995989 -0.216168
-0.0392983 0.998924 -0.216805
-0.0346218 1.00577 -0.218292
-0.0296758 1.00577 -0.218292
-0.0248742 1.01164 -0.219566
