ply
format ascii 1.0
comment Created by Open3D
element vertex 1707
property double x
property double y
property double z
end_header
-0.117202 1.23603 0.131041
-0.112391 1.24456 0.131944
0.087483 1.76135 0.186733
0.0940504 1.73577 0.184022
0.10145 1.72831 0.183231
0.108715 1.71979 0.182327
0.11648 1.71979 0.182327
0.1254 1.73577 0.184022
0.132011 1.71979 0.182327
-0.143375 1.26865 0.129116
-0.136717 1.26013 0.128249
-0.130577 1.25587 0.127816
0.0936462 1.72629 0.175693
0.10095 1.71778 0.174826
0.109254 1.72629 0.175693
0.117058 1.72629 0.175693
0.124862 1.72629 0.175693
-0.322508 1.87523 0.182876
-0.30601 1.82739 0.178211
-0.294795 1.80932 0.176449
0.0931843 1.71577 0.167326
0.100449 1.70727 0.166496
0.109254 1.72427 0.168155
0.117058 1.72427 0.168155
0.1254 1.73172 0.168881
-0.304586 1.81676 0.16943
-0.29774 1.82525 0.170222
-0.283912 1.79021 0.166955
0.0927225 1.70527 0.159033
0.100011 1.69783 0.158339
0.124862 1.72226 0.160617
-0.336061 1.89947 0.169029
-0.322508 1.87084 0.166481
-0.307612 1.83266 0.163083
-0.294795 1.80508 0.160629
-0.279702 1.7616 0.15676
-0.267785 1.73614 0.154495
-0.259909 1.73614 0.154495
-0.250801 1.72766 0.15374
0.126016 1.73614 0.154495
-0.358611 1.79449 0.152002
-0.362961 1.94915 0.165102
-0.330995 1.86864 0.158283
-0.320862 1.85911 0.157475
-0.312419 1.85911 0.157475
-0.29774 1.82097 0.154245
-0.279702 1.75953 0.149041
-0.269093 1.74258 0.147605
-0.261179 1.74258 0.147605
-0.253264 1.74258 0.147605
-0.246543 1.75105 0.148323
-0.236281 1.73411 0.146887
0.130202 2.04766 0.173447
0.126016 1.73411 0.146887
-0.383866 1.87596 0.150851
-0.364943 1.86644 0.150085
-0.369793 1.93628 0.1557
-0.357043 1.91511 0.153999
-0.314281 1.81883 0.146256
-0.310817 1.8474 0.148553
-0.299298 1.82835 0.147022
-0.286606 1.80084 0.14481
-0.274328 1.77439 0.142683
-0.270229 1.80084 0.14481
-0.258191 1.77439 0.142683
-0.248929 1.76593 0.142002
-0.239745 1.75746 0.141321
-0.230637 1.749 0.140641
-0.222684 1.749 0.140641
-0.214731 1.749 0.140641
-0.167821 1.75746 0.141321
0.0346603 1.90559 0.153233
0.1254 1.7236 0.138599
-0.385814 1.88327 0.143335
-0.363904 1.81669 0.138267
-0.366805 1.87376 0.142611
-0.363933 1.90335 0.144863
-0.359016 1.92343 0.146391
-0.311173 1.79872 0.1369
-0.30156 1.79027 0.136257
-0.290465 1.7723 0.134889
-0.282396 1.7723 0.134889
-0.2758 1.78181 0.135613
-0.26626 1.7723 0.134889
-0.258191 1.7723 0.134889
-0.250123 1.7723 0.134889
-0.240899 1.76385 0.134246
-0.230637 1.74694 0.132959
-0.222684 1.74694 0.132959
-0.214731 1.74694 0.132959
-0.207779 1.75539 0.133602
-0.199787 1.75539 0.133602
-0.191796 1.75539 0.133602
-0.18469 1.76385 0.134246
-0.16863 1.76385 0.134246
-0.100286 1.83571 0.139715
-0.090976 1.81669 0.138267
-0.0696669 1.91286 0.145587
-0.00848705 1.86425 0.141887
0 1.85473 0.141163
0.0168009 1.84522 0.140439
0.0248116 1.81669 0.138267
0.0336018 1.84522 0.140439
0.0424352 1.86425 0.141887
0.0504027 1.84522 0.140439
0.0581969 1.8262 0.138991
0.0658564 1.80823 0.137624
0.126016 1.73003 0.131672
-0.374123 1.82405 0.130961
-0.363933 1.90111 0.136493
-0.308247 1.77971 0.127778
-0.298533 1.77021 0.127096
-0.287694 1.75332 0.125883
-0.281049 1.76177 0.126489
-0.270402 1.74488 0.125277
-0.262449 1.74488 0.125277
-0.253264 1.73643 0.12467
-0.247736 1.75332 0.125883
-0.240899 1.76177 0.126489
-0.231753 1.75332 0.125883
-0.225917 1.77021 0.127096
-0.216809 1.76177 0.126489
-0.20978 1.77021 0.127096
-0.202794 1.77971 0.127778
-0.19272 1.76177 0.126489
-0.182919 1.74488 0.125277
-0.175813 1.75332 0.125883
-0.169438 1.77021 0.127096
-0.1606 1.76177 0.126489
-0.154124 1.77971 0.127778
-0.14887 1.81455 0.130279
-0.141335 1.82405 0.130961
-0.131713 1.8061 0.129672
-0.122831 1.7966 0.12899
-0.116394 1.82405 0.130961
-0.107517 1.81455 0.130279
-0.0973413 1.77971 0.127778
-0.0892295 1.77971 0.127778
-0.0815026 1.78816 0.128384
-0.0740885 1.8061 0.129672
-0.0661643 1.81455 0.130279
-0.0585 1.83355 0.131643
-0.0511821 1.87155 0.134371
-0.0435418 1.91061 0.137175
-0.0172339 1.89055 0.135735
-0.00853035 1.87155 0.134371
0 1.85255 0.133007
0.0167143 1.83355 0.131643
0.0249415 1.82405 0.130961
0.032755 1.7966 0.12899
0.0411603 1.8061 0.129672
0.0489016 1.78816 0.128384
0.0567824 1.77971 0.127778
-0.373834 1.95053 0.131609
-0.295685 1.75126 0.118164
-0.283537 1.72595 0.116456
-0.275661 1.72595 0.116456
-0.267785 1.72595 0.116456
-0.259909 1.72595 0.116456
-0.250801 1.71752 0.115887
-0.242963 1.71752 0.115887
-0.237435 1.73439 0.117026
-0.229521 1.73439 0.117026
-0.224839 1.75969 0.118733
-0.217849 1.76813 0.119302
-0.211907 1.78605 0.120511
-0.202794 1.77761 0.119942
-0.19272 1.75969 0.118733
-0.182034 1.73439 0.117026
-0.174966 1.74282 0.117595
-0.169438 1.76813 0.119302
-0.163005 1.78605 0.120511
-0.154124 1.77761 0.119942
-0.14887 1.81241 0.12229
-0.140599 1.81241 0.12229
-0.131713 1.80397 0.121721
-0.124058 1.81241 0.12229
-0.114643 1.79448 0.121081
-0.105953 1.78605 0.120511
-0.0973413 1.77761 0.119942
-0.0887532 1.76813 0.119302
-0.0806847 1.76813 0.119302
-0.0733524 1.78605 0.120511
-0.0661643 1.81241 0.12229
-0.0581969 1.8219 0.12293
-0.0496233 1.81241 0.12229
-0.0426518 1.86934 0.126132
-0.0352184 1.92944 0.130187
-0.0262694 1.9189 0.129475
-0.0173301 1.89886 0.128123
-0.00866507 1.89886 0.128123
0 1.84087 0.124211
0.00815026 1.78605 0.120511
0.0163005 1.78605 0.120511
0.0246962 1.80397 0.121721
0.0329282 1.80397 0.121721
-0.294261 1.74076 0.109913
-0.282151 1.71549 0.108317
-0.274314 1.71549 0.108317
-0.242795 1.66073 0.104859
-0.236252 1.6681 0.105325
-0.231806 1.69127 0.106788
-0.226312 1.70812 0.107851
-0.220529 1.72391 0.108849
-0.213692 1.73234 0.109381
-0.205777 1.73234 0.109381
-0.199787 1.74919 0.110445
-0.19272 1.75761 0.110977
-0.182919 1.74076 0.109913
-0.174119 1.73234 0.109381
-0.169438 1.76604 0.111509
-0.163775 1.79236 0.113171
-0.154124 1.77551 0.112107
-0.146012 1.77551 0.112107
-0.1379 1.77551 0.112107
-0.129096 1.76604 0.111509
-0.121677 1.77551 0.112107
-0.114104 1.78394 0.112639
-0.105953 1.78394 0.112639
-0.0978031 1.78394 0.112639
-0.0892295 1.77551 0.112107
-0.0802998 1.75761 0.110977
-0.0726162 1.76604 0.111509
-0.0648942 1.77551 0.112107
-0.0573213 1.79236 0.113171
-0.0496233 1.81027 0.114301
-0.0426518 1.86713 0.117892
-0.0344678 1.88609 0.119089
-0.0259952 1.89662 0.119754
-0.017513 1.91663 0.121017
-0.00880459 1.92716 0.121682
0 1.9061 0.120352
0.00831384 1.81974 0.1149
-0.294261 1.7387 0.102231
-0.283537 1.72187 0.101241
-0.275661 1.72187 0.101241
-0.214033 1.61353 0.0948711
-0.213389 1.66613 0.0979633
-0.209665 1.69768 0.0998187
-0.203776 1.71346 0.100746
-0.198825 1.7387 0.102231
-0.193643 1.76395 0.103715
-0.185575 1.76395 0.103715
-0.177506 1.76395 0.103715
-0.170347 1.77342 0.104272
-0.107017 1.79971 0.105818
-0.0987846 1.79971 0.105818
-0.0900763 1.79024 0.105261
-0.0823205 1.79971 0.105818
-0.0740885 1.79971 0.105818
-0.0658564 1.79971 0.105818
-0.0581969 1.81759 0.106869
-0.0506625 1.84599 0.108539
-0.0426518 1.86493 0.109652
-0.0348335 1.90384 0.11194
-0.0265581 1.9354 0.113796
-0.0177054 1.9354 0.113796
-0.00890082 1.94592 0.114414
-0.295685 1.74505 0.0950063
-0.283537 1.71984 0.0936335
-0.275661 1.71984 0.0936335
-0.205768 1.66415 0.090602
-0.200899 1.68727 0.0918603
-0.197863 1.72824 0.0940911
-0.194683 1.77132 0.0964362
-0.186571 1.77132 0.0964362
-0.177506 1.76186 0.0959214
-0.169438 1.76186 0.0959214
-0.108643 1.8249 0.0993533
-0.0997661 1.81544 0.0988385
-0.0752143 1.8249 0.0993533
-0.0672036 1.83435 0.0998681
-0.0591062 1.84381 0.100383
-0.0509223 1.85326 0.100898
-0.0435418 1.90159 0.103529
-0.0352184 1.9226 0.104673
-0.306602 1.75977 0.0881279
-0.295685 1.74298 0.0872871
-0.284922 1.72619 0.0864462
-0.275661 1.7178 0.0860258
-0.194683 1.76922 0.0886008
-0.190222 1.80384 0.090335
-0.181105 1.79545 0.0899146
-0.173681 1.80384 0.090335
-0.168009 1.83218 0.0917539
-0.151987 1.84162 0.0922269
-0.142808 1.83218 0.0917539
-0.133714 1.82273 0.0912809
-0.124708 1.81329 0.090808
-0.116394 1.81329 0.090808
-0.108643 1.82273 0.0912809
-0.0997661 1.81329 0.090808
-0.0914523 1.81329 0.090808
-0.0752143 1.82273 0.0912809
-0.06755 1.84162 0.0922269
-0.0588031 1.83218 0.0917539
0.076547 1.66953 0.0836085
0.10095 1.69366 0.0848172
-0.306602 1.75768 0.0803343
-0.295685 1.74091 0.0795679
-0.284922 1.72414 0.0788014
-0.277008 1.72414 0.0788014
-0.194683 1.76712 0.0807655
-0.188341 1.78389 0.0815319
-0.182905 1.81114 0.0827774
-0.1755 1.82057 0.0832086
-0.169741 1.84887 0.084502
-0.160431 1.83944 0.0840708
-0.152767 1.84887 0.084502
-0.143544 1.83944 0.0840708
-0.134407 1.83 0.0836397
-0.125357 1.82057 0.0832086
-0.117 1.82057 0.0832086
-0.108643 1.82057 0.0832086
-0.0997661 1.81114 0.0827774
-0.0914523 1.81114 0.0827774
-0.0835715 1.82057 0.0832086
-0.075604 1.83 0.0836397
-0.06755 1.83944 0.0840708
-0.0585 1.82057 0.0832086
-0.0498831 1.81114 0.0827774
0.0769319 1.67593 0.0765979
0.0846251 1.67593 0.0765979
0.0923183 1.67593 0.0765979
0.100011 1.67593 0.0765979
0.107705 1.67593 0.0765979
0.115903 1.68327 0.0769332
-0.295685 1.73885 0.0718487
-0.283537 1.71372 0.0708105
-0.277008 1.7221 0.0711566
-0.210704 1.69802 0.0701617
-0.206778 1.73047 0.0715026
-0.20075 1.74722 0.0721947
-0.194683 1.76502 0.0729301
-0.188341 1.78177 0.0736222
-0.182905 1.80899 0.0747469
-0.177319 1.83725 0.0759148
-0.169741 1.84667 0.0763041
-0.160431 1.83725 0.0759148
-0.152767 1.84667 0.0763041
-0.14428 1.84667 0.0763041
-0.135793 1.84667 0.0763041
-0.126656 1.83725 0.0759148
-0.118212 1.83725 0.0759148
-0.109206 1.82783 0.0755255
-0.100805 1.82783 0.0755255
-0.0924049 1.82783 0.0755255
-0.0844375 1.83725 0.0759148
-0.0759937 1.83725 0.0759148
-0.06755 1.83725 0.0759148
-0.0585 1.81841 0.0751362
-0.0437824 1.9053 0.0787264
0.0769319 1.67394 0.0691668
0.0846251 1.67394 0.0691668
0.0918564 1.66556 0.0688208
0.0995111 1.66556 0.0688208
0.107166 1.66556 0.0688208
0.115398 1.67394 0.0691668
0.124246 1.68964 0.0698156
-0.298533 1.75351 0.0647473
-0.284922 1.72005 0.0635118
-0.277008 1.72005 0.0635118
-0.225455 1.63326 0.0603072
-0.221986 1.66358 0.0614269
-0.220529 1.71168 0.0632029
-0.216809 1.74514 0.0644384
-0.20978 1.75351 0.0647473
-0.201712 1.75351 0.0647473
-0.197569 1.78906 0.06606
-0.191218 1.80683 0.0667163
-0.183857 1.81624 0.0670638
-0.177319 1.83507 0.0677587
-0.171473 1.8633 0.0688012
-0.163722 1.87271 0.0691487
-0.155105 1.87271 0.0691487
-0.146488 1.87271 0.0691487
-0.135793 1.84448 0.0681062
-0.126656 1.83507 0.0677587
-0.118212 1.83507 0.0677587
-0.109769 1.83507 0.0677587
-0.100805 1.82566 0.0674113
-0.0919286 1.81624 0.0670638
-0.0840045 1.82566 0.0674113
-0.0759937 1.83507 0.0677587
-0.0678964 1.84448 0.0681062
-0.0591062 1.83507 0.0677587
0.0780385 1.696 0.0626238
0.0858424 1.696 0.0626238
0.0927225 1.67927 0.062006
0.0990733 1.65626 0.0611566
0.107166 1.66358 0.0614269
0.114821 1.66358 0.0614269
0.123091 1.67195 0.0617357
-0.30971 1.76917 0.0575311
-0.30156 1.76917 0.0575311
-0.289079 1.74306 0.056682
-0.278355 1.72635 0.0561386
-0.256825 1.63967 0.0533198
-0.224767 1.57387 0.0511802
-0.223103 1.66996 0.0543047
-0.225643 1.81408 0.0589914
-0.21616 1.80468 0.0586858
-0.205801 1.78693 0.0581084
-0.199532 1.80468 0.0586858
-0.194206 1.83288 0.0596027
-0.18862 1.86108 0.0605197
-0.178228 1.84228 0.0599084
-0.173301 1.88092 0.061165
-0.166373 1.90076 0.0618102
-0.156751 1.89032 0.0614706
-0.146488 1.87048 0.0608253
-0.135793 1.84228 0.0599084
-0.126007 1.82348 0.0592971
-0.117606 1.82348 0.0592971
-0.109206 1.82348 0.0592971
-0.100805 1.82348 0.0592971
-0.0924049 1.82348 0.0592971
-0.0835715 1.81408 0.0589914
-0.075604 1.82348 0.0592971
-0.06755 1.83288 0.0596027
-0.0603187 1.87048 0.0608253
-0.0435418 1.89032 0.0614706
-0.025721 1.86108 0.0605197
0.0866362 1.70964 0.0555952
0.0927225 1.67727 0.0545424
0.0995111 1.6616 0.054033
0.106694 1.65429 0.0537953
0.114315 1.65429 0.0537953
0.124246 1.68562 0.0548141
-0.300136 1.75872 0.049424
-0.289079 1.74099 0.0489256
-0.275661 1.70761 0.0479876
-0.261569 1.66797 0.0468736
-0.251494 1.65232 0.0464339
-0.243873 1.65232 0.0464339
-0.238489 1.66797 0.0468736
-0.235126 1.69926 0.0477531
-0.230637 1.7243 0.0484566
-0.224839 1.74099 0.0489256
-0.217849 1.74933 0.0491602
-0.212908 1.77541 0.049893
-0.204719 1.77541 0.049893
-0.198493 1.79314 0.0503914
-0.19321 1.82131 0.0511829
-0.185762 1.83069 0.0514467
-0.177319 1.83069 0.0514467
-0.171473 1.85886 0.0522382
-0.165459 1.88807 0.053059
-0.155105 1.86825 0.052502
-0.145752 1.85886 0.0522382
-0.134407 1.82131 0.0511829
-0.126007 1.82131 0.0511829
-0.117606 1.82131 0.0511829
-0.109206 1.82131 0.0511829
-0.101325 1.83069 0.0514467
-0.0928812 1.83069 0.0514467
-0.0840045 1.82131 0.0511829
-0.0752143 1.81192 0.050919
-0.06755 1.83069 0.0514467
-0.0600156 1.85886 0.0522382
-0.0162235 1.75872 0.049424
0.01606 1.74099 0.0489256
0.0237435 1.71595 0.0482221
0.0310614 1.68361 0.0473134
0.0381051 1.65232 0.0464339
0.0444848 1.60746 0.0451734
0.0627002 1.69926 0.0477531
0.0940504 1.69926 0.0477531
0.100011 1.66797 0.0468736
0.106223 1.64502 0.0462287
0.114821 1.65962 0.0466391
0.124246 1.68361 0.0473134
-0.295685 1.73057 0.0409719
-0.286308 1.72224 0.0407746
-0.275661 1.70557 0.0403799
-0.264022 1.6816 0.0398126
-0.253875 1.66598 0.0394426
-0.24495 1.65764 0.0392453
-0.239533 1.67327 0.0396153
-0.235126 1.69723 0.0401826
-0.226312 1.68994 0.0400099
-0.220529 1.70557 0.0403799
-0.21577 1.73057 0.0409719
-0.210906 1.75662 0.0415886
-0.203757 1.76495 0.041786
-0.19653 1.77329 0.0419833
-0.189337 1.78267 0.0422053
-0.182905 1.80038 0.0426246
-0.178228 1.83789 0.0435127
-0.172339 1.86602 0.0441787
-0.165459 1.88581 0.0446473
-0.142071 1.80976 0.0428466
-0.133022 1.80038 0.0426246
-0.124708 1.80038 0.0426246
-0.117 1.80976 0.0428466
-0.108643 1.80976 0.0428466
-0.100805 1.81913 0.0430686
-0.0924049 1.81913 0.0430686
-0.0840045 1.81913 0.0430686
-0.0752143 1.80976 0.0428466
-0.0668572 1.80976 0.0428466
-0.0588031 1.81913 0.0430686
-0.0509223 1.83789 0.0435127
0.0236281 1.70557 0.0403799
0.0312154 1.68994 0.0400099
0.0390193 1.68994 0.0400099
0.0465922 1.6816 0.0398126
0.100449 1.67327 0.0396153
0.106223 1.64305 0.0388999
-0.287694 1.7285 0.0332528
-0.277008 1.71185 0.0329324
-0.270402 1.72018 0.0330926
-0.257527 1.68792 0.032472
-0.248492 1.67959 0.0323118
-0.242963 1.6952 0.0326121
-0.236281 1.70353 0.0327723
-0.225195 1.67959 0.0323118
-0.21743 1.67959 0.0323118
-0.212653 1.70353 0.0327723
-0.207779 1.7285 0.0332528
-0.20075 1.73683 0.0334129
-0.195606 1.76284 0.0339134
-0.176409 1.81696 0.0349544
-0.152767 1.83569 0.0353148
-0.142808 1.81696 0.0349544
-0.133022 1.79823 0.0345941
-0.125357 1.80759 0.0347743
-0.117606 1.81696 0.0349544
-0.109206 1.81696 0.0349544
-0.100805 1.81696 0.0349544
-0.0924049 1.81696 0.0349544
-0.0844375 1.82632 0.0351346
-0.0759937 1.82632 0.0351346
-0.0661643 1.78886 0.0344139
-0.0496233 1.78886 0.0344139
-0.0407513 1.76284 0.0339134
-0.032755 1.77117 0.0340736
-0.289079 1.73475 0.0256566
-0.285259 1.76074 0.0260409
-0.27989 1.77841 0.0263022
-0.252033 1.70149 0.0251646
-0.151208 1.81478 0.0268402
-0.141335 1.79607 0.0265635
-0.133714 1.80543 0.0267019
-0.126007 1.81478 0.0268402
-0.117606 1.81478 0.0268402
-0.109206 1.81478 0.0268402
-0.100805 1.81478 0.0268402
-0.0924049 1.81478 0.0268402
-0.0835715 1.80543 0.0267019
-0.0748246 1.79607 0.0265635
-0.06551 1.76905 0.0261638
-0.0562099 1.73475 0.0256566
-0.0481799 1.73475 0.0256566
-0.298533 1.74098 0.017986
-0.293409 1.75863 0.0181683
-0.159608 1.81261 0.018726
-0.14887 1.78458 0.0184364
-0.141335 1.79392 0.018533
-0.133714 1.80327 0.0186295
-0.124708 1.79392 0.018533
-0.116394 1.79392 0.018533
-0.107517 1.78458 0.0184364
-0.0992465 1.78458 0.0184364
-0.0905526 1.77627 0.0183506
-0.0823205 1.77627 0.0183506
-0.0740885 1.77627 0.0183506
-0.06551 1.76693 0.0182541
-0.0472561 1.69945 0.017557
-0.336061 1.8571 0.0108853
-0.142808 1.81044 0.0106118
-0.133714 1.8011 0.0105571
-0.125357 1.8011 0.0105571
-0.117 1.8011 0.0105571
-0.108643 1.8011 0.0105571
-0.100286 1.8011 0.0105571
-0.0919286 1.8011 0.0105571
-0.0835715 1.8011 0.0105571
-0.075604 1.81044 0.0106118
-0.0672036 1.81044 0.0106118
-0.151208 1.80826 0.0024976
-0.142808 1.80826 0.0024976
-0.133714 1.79894 0.00248473
-0.125357 1.79894 0.00248473
-0.117 1.79894 0.00248473
-0.108643 1.79894 0.00248473
-0.100286 1.79894 0.00248473
-0.0919286 1.79894 0.00248473
-0.0840045 1.80826 0.0024976
-0.0759937 1.81758 0.00251048
-0.0672036 1.80826 0.0024976
-0.0588031 1.80826 0.0024976
-0.150429 1.79678 -0.00558765
-0.141335 1.78747 -0.0055587
-0.133022 1.78747 -0.0055587
-0.124708 1.78747 -0.0055587
-0.117 1.79678 -0.00558765
-0.108643 1.79678 -0.00558765
-0.100286 1.79678 -0.00558765
-0.0919286 1.79678 -0.00558765
-0.0835715 1.79678 -0.00558765
-0.0752143 1.79678 -0.00558765
-0.0672036 1.80609 -0.0056166
-0.0585 1.79678 -0.00558765
-0.0504027 1.80609 -0.0056166
0.105953 1.7523 -0.00544933
-0.149649 1.78532 -0.0135893
-0.140599 1.77602 -0.0135185
-0.132329 1.77602 -0.0135185
-0.124708 1.78532 -0.0135893
-0.117 1.79461 -0.01366
-0.108643 1.79461 -0.01366
-0.100286 1.79461 -0.01366
-0.0919286 1.79461 -0.01366
-0.0835715 1.79461 -0.01366
-0.0752143 1.79461 -0.01366
-0.0668572 1.79461 -0.01366
-0.0585 1.79461 -0.01366
0.107017 1.76775 -0.0134556
-0.317225 1.83889 -0.0222954
-0.313501 1.86778 -0.0226458
-0.151987 1.81103 -0.0219576
-0.142071 1.79245 -0.0217324
-0.133022 1.78316 -0.0216198
-0.124708 1.78316 -0.0216198
-0.115788 1.77388 -0.0215072
-0.10808 1.78316 -0.0216198
-0.0997661 1.78316 -0.0216198
-0.090976 1.77388 -0.0215072
-0.0827054 1.77388 -0.0215072
-0.0744349 1.77388 -0.0215072
-0.0665108 1.78316 -0.0216198
-0.0581969 1.78316 -0.0216198
-0.151208 1.79956 -0.0299592
-0.139945 1.76349 -0.0293587
-0.13102 1.75421 -0.0292042
-0.122831 1.75421 -0.0292042
-0.114643 1.75421 -0.0292042
-0.107017 1.76349 -0.0293587
-0.0987846 1.76349 -0.0293587
-0.0900763 1.75421 -0.0292042
-0.0818875 1.75421 -0.0292042
-0.0736988 1.75421 -0.0292042
-0.06551 1.75421 -0.0292042
-0.0570518 1.74597 -0.029067
-0.0486706 1.73772 -0.0289297
-0.302628 1.90445 -0.0403413
-0.14887 1.7696 -0.0374847
-0.1379 1.73562 -0.0367651
-0.129788 1.73562 -0.0367651
-0.121677 1.73562 -0.0367651
-0.113565 1.73562 -0.0367651
-0.105453 1.73562 -0.0367651
-0.0978031 1.74386 -0.0369395
-0.0896529 1.74386 -0.0369395
-0.0815026 1.74386 -0.0369395
-0.0730059 1.73562 -0.0367651
-0.0648942 1.73562 -0.0367651
-0.0567824 1.73562 -0.0367651
-0.0486706 1.73562 -0.0367651
-0.0403424 1.72636 -0.0365688
0.0672036 1.79739 -0.0380734
0.0748246 1.77886 -0.0376809
0.0835715 1.78813 -0.0378772
-0.329272 1.85177 -0.0476426
-0.320607 1.85177 -0.0476426
-0.138554 1.74175 -0.0448121
-0.129788 1.73352 -0.0446004
-0.121677 1.73352 -0.0446004
-0.113565 1.73352 -0.0446004
-0.10489 1.72427 -0.0443624
-0.0973413 1.73352 -0.0446004
-0.0892295 1.73352 -0.0446004
-0.0811177 1.73352 -0.0446004
-0.0726162 1.72427 -0.0443624
-0.0642398 1.71605 -0.0441507
-0.0567824 1.73352 -0.0446004
-0.0484108 1.72427 -0.0443624
-0.0405589 1.73352 -0.0446004
-0.0322739 1.72427 -0.0443624
-0.0242054 1.72427 -0.0443624
-0.0162235 1.73352 -0.0446004
-0.00815026 1.74175 -0.0448121
0 1.74175 -0.0448121
0.00818875 1.74998 -0.0450237
0.0164641 1.75923 -0.0452618
0.0245663 1.74998 -0.0450237
0.032755 1.74998 -0.0450237
0.0407513 1.74175 -0.0448121
0.0493923 1.75923 -0.0452618
0.0573213 1.74998 -0.0450237
0.0658564 1.75923 -0.0452618
0.0736988 1.74998 -0.0450237
0.0827054 1.76746 -0.0454734
-0.121027 1.72218 -0.0521559
-0.11242 1.71397 -0.0519071
-0.10439 1.71397 -0.0519071
-0.0963598 1.71397 -0.0519071
-0.0883298 1.71397 -0.0519071
-0.0802998 1.71397 -0.0519071
-0.0722698 1.71397 -0.0519071
-0.0639319 1.70575 -0.0516583
-0.0562099 1.71397 -0.0519071
-0.0481799 1.71397 -0.0519071
-0.0403424 1.72218 -0.0521559
-0.0322739 1.72218 -0.0521559
-0.0240899 1.71397 -0.0519071
-0.0161369 1.72218 -0.0521559
-0.00806847 1.72218 -0.0521559
0 1.73143 -0.0524358
0.00811177 1.73143 -0.0524358
0.0163005 1.73964 -0.0526846
0.0243353 1.73143 -0.0524358
0.0324471 1.73143 -0.0524358
0.0405589 1.73143 -0.0524358
0.0489016 1.73964 -0.0526846
0.0573213 1.74786 -0.0529334
0.06551 1.74786 -0.0529334
0.0733524 1.73964 -0.0526846
0.0815026 1.73964 -0.0526846
0.0919286 1.7838 -0.0540219
-0.135855 1.70368 -0.0593775
-0.127248 1.69548 -0.0590915
-0.119295 1.69548 -0.0590915
-0.111342 1.69548 -0.0590915
-0.103889 1.70368 -0.0593775
-0.095436 1.69548 -0.0590915
-0.087483 1.69548 -0.0590915
-0.0799149 1.70368 -0.0593775
-0.0719234 1.70368 -0.0593775
-0.0639319 1.70368 -0.0593775
-0.0559404 1.70368 -0.0593775
-0.0479489 1.70368 -0.0593775
-0.0399575 1.70368 -0.0593775
-0.0321199 1.71189 -0.0596635
-0.0240899 1.71189 -0.0596635
-0.015983 1.70368 -0.0593775
-0.00802998 1.71189 -0.0596635
0 1.71189 -0.0596635
0.00806847 1.72009 -0.0599494
0.0162235 1.72933 -0.0602712
0.0242054 1.72009 -0.0599494
0.0322739 1.72009 -0.0599494
0.0403424 1.72009 -0.0599494
0.0486706 1.72933 -0.0602712
0.0567824 1.72933 -0.0602712
0.0652021 1.73753 -0.0605572
0.0726162 1.72009 -0.0599494
0.0806847 1.72009 -0.0599494
-0.118718 1.68522 -0.0664503
-0.0712306 1.68522 -0.0664503
-0.0633161 1.68522 -0.0664503
-0.055671 1.69342 -0.0667735
-0.047718 1.69342 -0.0667735
-0.039765 1.69342 -0.0667735
-0.031812 1.69342 -0.0667735
-0.0239745 1.70162 -0.0670967
-0.015983 1.70162 -0.0670967
-0.00799149 1.70162 -0.0670967
0 1.70981 -0.0674198
0.00802998 1.70981 -0.0674198
0.01606 1.70981 -0.0674198
0.0239745 1.70162 -0.0670967
0.0321199 1.70981 -0.0674198
0.0401499 1.70981 -0.0674198
0.0481799 1.70981 -0.0674198
0.0562099 1.70981 -0.0674198
0.0642398 1.70981 -0.0674198
-0.371814 1.41203 -0.0621589
-0.363586 1.40589 -0.0618886
-0.356976 1.40589 -0.0618886
-0.34909 1.40077 -0.0616634
-0.345255 1.41203 -0.0621589
-0.335917 1.40077 -0.0616634
-0.32933 1.40077 -0.0616634
-0.0554016 1.68318 -0.0740952
-0.047718 1.69136 -0.0744555
-0.0395725 1.68318 -0.0740952
-0.023859 1.69136 -0.0744555
-0.015906 1.69136 -0.0744555
-0.00799149 1.69955 -0.0748159
0 1.69955 -0.0748159
0.00799149 1.69955 -0.0748159
0.015983 1.69955 -0.0748159
0.0239745 1.69955 -0.0748159
0.031966 1.69955 -0.0748159
0.039765 1.69136 -0.0744555
0.047718 1.69136 -0.0744555
0.0554016 1.68318 -0.0740952
0.0633161 1.68318 -0.0740952
0.071577 1.69136 -0.0744555
-0.379526 1.36636 -0.0664355
-0.374489 1.37147 -0.0666839
-0.373791 1.39293 -0.0677274
-0.360228 1.36636 -0.0664355
-0.349562 1.35001 -0.0656404
-0.344505 1.35512 -0.0658889
-0.338125 1.35512 -0.0658889
-0.329244 1.3449 -0.065392
-0.324139 1.35001 -0.0656404
-0.318986 1.35512 -0.0658889
-0.311428 1.35001 -0.0656404
-0.302762 1.33979 -0.0651435
-0.0554016 1.68113 -0.08174
-0.0237435 1.68113 -0.08174
-0.00791451 1.68113 -0.08174
0 1.6893 -0.0821375
0.00791451 1.68113 -0.08174
0.015829 1.68113 -0.08174
0.023859 1.6893 -0.0821375
0.031658 1.68113 -0.08174
0.0395725 1.68113 -0.08174
0.0472561 1.67295 -0.0813425
-0.395326 1.37491 -0.0731923
-0.390289 1.38001 -0.073464
-0.379526 1.3647 -0.0726489
-0.368629 1.34837 -0.0717795
-0.35953 1.33816 -0.0712362
-0.35457 1.34326 -0.0715079
-0.348238 1.34326 -0.0715079
-0.343206 1.34837 -0.0717795
-0.335575 1.34326 -0.0715079
-0.327993 1.33816 -0.0712362
-0.321685 1.33816 -0.0712362
-0.315378 1.33816 -0.0712362
-0.305534 1.32285 -0.0704211
-0.298144 1.31775 -0.0701494
-0.290802 1.31264 -0.0698777
-0.284614 1.31264 -0.0698777
-0.277561 1.30856 -0.0696604
-0.155115 1.26569 -0.0673782
-0.145839 1.28917 -0.068628
-0.138213 1.27487 -0.0678673
-0.131674 1.26977 -0.0675956
-0.125689 1.26977 -0.0675956
-0.119319 1.26569 -0.0673782
-0.114176 1.27487 -0.0678673
0.0614397 1.30345 -0.0693887
0.067319 1.29835 -0.069117
0.0731503 1.29325 -0.0688453
0.0792461 1.29325 -0.0688453
-0.392391 1.36303 -0.0788624
-0.382783 1.35182 -0.0782136
-0.373565 1.34162 -0.0776237
-0.365838 1.33653 -0.0773288
-0.358159 1.33143 -0.0770339
-0.351876 1.33143 -0.0770339
-0.346915 1.33653 -0.0773288
-0.340608 1.33653 -0.0773288
-0.333025 1.33143 -0.0770339
-0.325491 1.32633 -0.076739
-0.319231 1.32633 -0.076739
-0.311769 1.32123 -0.076444
-0.304355 1.31614 -0.0761491
-0.296989 1.31104 -0.0758542
-0.288767 1.30186 -0.0753233
-0.256026 1.29167 -0.0747335
-0.248155 1.28249 -0.0742026
-0.242102 1.28249 -0.0742026
-0.229083 1.2774 -0.0739077
-0.223054 1.2774 -0.0739077
-0.213908 1.25905 -0.072846
-0.192912 1.2774 -0.0739077
-0.184945 1.26414 -0.0731409
-0.178979 1.26414 -0.0731409
-0.172315 1.25905 -0.072846
-0.165161 1.24987 -0.0723151
-0.158223 1.24172 -0.0718432
-0.152863 1.24579 -0.0720792
-0.147465 1.24987 -0.0723151
-0.141104 1.24579 -0.0720792
-0.134782 1.24172 -0.0718432
-0.128922 1.24172 -0.0718432
-0.123062 1.24172 -0.0718432
-0.117587 1.24579 -0.0720792
-0.111708 1.24579 -0.0720792
-0.106175 1.24987 -0.0723151
-0.101012 1.25905 -0.072846
-0.0947624 1.25497 -0.07261
-0.0891284 1.25905 -0.072846
-0.084399 1.2774 -0.0739077
-0.0792461 1.29167 -0.0747335
0.0242102 1.28249 -0.0742026
0.0301425 1.2774 -0.0739077
0.036171 1.2774 -0.0739077
0.0420648 1.27332 -0.0736718
0.048228 1.2774 -0.0739077
0.054473 1.28249 -0.0742026
0.0605256 1.28249 -0.0742026
0.0665781 1.28249 -0.0742026
0.072342 1.2774 -0.0739077
-0.386228 1.33999 -0.0837396
-0.378453 1.33489 -0.0834214
-0.367888 1.31962 -0.082467
-0.358862 1.30944 -0.0818306
-0.354046 1.31453 -0.0821488
-0.349181 1.31962 -0.082467
-0.344269 1.32471 -0.0827851
-0.336711 1.31962 -0.082467
-0.3292 1.31453 -0.0821488
-0.322989 1.31453 -0.0821488
-0.315551 1.30944 -0.0818306
-0.308401 1.30537 -0.0815761
-0.299876 1.29518 -0.0809398
-0.292601 1.29009 -0.0806216
-0.28447 1.28093 -0.0800489
-0.270416 1.27176 -0.0794762
-0.245393 1.26667 -0.0791581
-0.238638 1.2626 -0.0789036
-0.232672 1.2626 -0.0789036
-0.225061 1.25344 -0.0783309
-0.217536 1.24427 -0.0777582
-0.213215 1.25344 -0.0783309
-0.207966 1.25751 -0.0785854
-0.202024 1.25751 -0.0785854
-0.196083 1.25751 -0.0785854
-0.189525 1.25344 -0.0783309
-0.18226 1.24427 -0.0777582
-0.176381 1.24427 -0.0777582
-0.171059 1.24835 -0.0780127
-0.164622 1.24427 -0.0777582
-0.157573 1.23511 -0.0771855
-0.152363 1.2402 -0.0775037
-0.146503 1.2402 -0.0775037
-0.140065 1.23511 -0.0771855
-0.133786 1.23104 -0.076931
-0.12797 1.23104 -0.076931
-0.122153 1.23104 -0.076931
-0.115951 1.22696 -0.0766765
-0.110154 1.22696 -0.0766765
-0.104702 1.23104 -0.076931
-0.0988857 1.23104 -0.076931
-0.0933768 1.23511 -0.0771855
-0.0881903 1.24427 -0.0777582
-0.0823109 1.24427 -0.0777582
-0.0766817 1.24835 -0.0780127
-0.0710718 1.25344 -0.0783309
-0.0656255 1.2626 -0.0789036
-0.059852 1.26667 -0.0791581
-0.0540833 1.27176 -0.0794762
-0.048074 1.27176 -0.0794762
-0.0421995 1.27584 -0.0797308
-0.00605256 1.28093 -0.0800489
0 1.27584 -0.0797308
0.00600925 1.27176 -0.0794762
0.0119319 1.2626 -0.0789036
0.0178979 1.2626 -0.0789036
0.0238638 1.2626 -0.0789036
0.029926 1.26667 -0.0791581
0.0357957 1.2626 -0.0789036
0.0417617 1.2626 -0.0789036
0.0478816 1.26667 -0.0791581
0.0538668 1.26667 -0.0791581
0.059852 1.26667 -0.0791581
0.0663135 1.27584 -0.0797308
0.072111 1.27176 -0.0794762
0.0778076 1.26667 -0.0791581
0.0841296 1.27176 -0.0794762
-0.375566 1.32309 -0.0888313
-0.365049 1.30784 -0.0878071
-0.357745 1.30377 -0.087534
-0.351577 1.30377 -0.087534
-0.345409 1.30377 -0.087534
-0.341623 1.31292 -0.0881485
-0.335412 1.31292 -0.0881485
-0.327925 1.30784 -0.0878071
-0.320737 1.30377 -0.087534
-0.314569 1.30377 -0.087534
-0.307198 1.29868 -0.0871926
-0.297754 1.28445 -0.0862367
-0.289368 1.27428 -0.0855539
-0.282435 1.27021 -0.0852807
-0.245393 1.26512 -0.0849393
-0.238638 1.26106 -0.0846662
-0.230983 1.2519 -0.0840517
-0.223415 1.24275 -0.0834372
-0.217536 1.24275 -0.0834372
-0.210964 1.23868 -0.0831641
-0.204262 1.2336 -0.0828227
-0.197117 1.22546 -0.0822765
-0.191319 1.22546 -0.0822765
-0.185522 1.22546 -0.0822765
-0.180321 1.22953 -0.0825496
-0.173349 1.22139 -0.0820033
-0.166873 1.21631 -0.0816619
-0.162332 1.22546 -0.0822765
-0.157573 1.2336 -0.0828227
-0.151237 1.22953 -0.0825496
-0.144939 1.22546 -0.0822765
-0.139603 1.22953 -0.0825496
-0.133786 1.22953 -0.0825496
-0.127546 1.22546 -0.0822765
-0.121749 1.22546 -0.0822765
-0.115951 1.22546 -0.0822765
-0.110154 1.22546 -0.0822765
-0.10401 1.22139 -0.0820033
-0.0982313 1.22139 -0.0820033
-0.0927609 1.22546 -0.0822765
-0.0869634 1.22546 -0.0822765
-0.0811658 1.22546 -0.0822765
-0.0753683 1.22546 -0.0822765
-0.0698016 1.22953 -0.0825496
-0.0639848 1.22953 -0.0825496
-0.058168 1.22953 -0.0825496
-0.0523512 1.22953 -0.0825496
-0.0465344 1.22953 -0.0825496
-0.0408523 1.2336 -0.0828227
-0.0349008 1.22953 -0.0825496
-0.0291802 1.2336 -0.0828227
-0.0233442 1.2336 -0.0828227
-0.0175803 1.23868 -0.0831641
-0.0117202 1.23868 -0.0831641
-0.00587935 1.24275 -0.0834372
0 1.24275 -0.0834372
0.00586011 1.23868 -0.0831641
0.0117202 1.23868 -0.0831641
0.0175803 1.23868 -0.0831641
0.0235174 1.24275 -0.0834372
0.0293968 1.24275 -0.0834372
0.0352761 1.24275 -0.0834372
0.0412902 1.24682 -0.0837103
0.0473812 1.2519 -0.0840517
0.0533039 1.2519 -0.0840517
0.0592265 1.2519 -0.0840517
0.0653609 1.25597 -0.0843248
0.0715914 1.26106 -0.0846662
0.0772447 1.25597 -0.0843248
0.0831866 1.25597 -0.0843248
0.0891284 1.25597 -0.0843248
-0.383293 1.32655 -0.0952421
-0.374123 1.31639 -0.0945128
-0.363913 1.30217 -0.0934918
-0.35356 1.28694 -0.0923979
-0.348835 1.29202 -0.0927625
-0.342715 1.29202 -0.0927625
-0.337918 1.29709 -0.0931272
-0.331774 1.29709 -0.0931272
-0.32308 1.28694 -0.0923979
-0.319486 1.29709 -0.0931272
-0.310889 1.28694 -0.0923979
-0.303831 1.28287 -0.0921062
-0.288444 1.26865 -0.0910852
-0.281304 1.26358 -0.0907206
-0.269334 1.26358 -0.0907206
-0.258398 1.26865 -0.0910852
-0.245393 1.26358 -0.0907206
-0.237676 1.25443 -0.0900643
-0.230045 1.24529 -0.0894079
-0.224147 1.24529 -0.0894079
-0.217536 1.24123 -0.0891162
-0.210964 1.23717 -0.0888245
-0.202915 1.22396 -0.0878765
-0.196463 1.2199 -0.0875848
-0.191319 1.22396 -0.0878765
-0.185522 1.22396 -0.0878765
-0.180918 1.23209 -0.0884599
-0.173927 1.22396 -0.0878765
-0.167571 1.2199 -0.0875848
-0.161793 1.2199 -0.0875848
-0.156534 1.22396 -0.0878765
-0.150737 1.22396 -0.0878765
-0.144458 1.2199 -0.0875848
-0.140065 1.23209 -0.0884599
-0.134782 1.23717 -0.0888245
-0.12797 1.22802 -0.0881682
-0.121345 1.2199 -0.0875848
-0.115566 1.2199 -0.0875848
-0.110154 1.22396 -0.0878765
-0.10401 1.2199 -0.0875848
-0.0982313 1.2199 -0.0875848
-0.0927609 1.22396 -0.0878765
-0.0869634 1.22396 -0.0878765
-0.0811658 1.22396 -0.0878765
-0.0753683 1.22396 -0.0878765
-0.0695707 1.22396 -0.0878765
-0.0639848 1.22802 -0.0881682
-0.058168 1.22802 -0.0881682
-0.0523512 1.22802 -0.0881682
-0.0465344 1.22802 -0.0881682
-0.0407176 1.22802 -0.0881682
-0.0350163 1.23209 -0.0884599
-0.0291802 1.23209 -0.0884599
-0.0233442 1.23209 -0.0884599
-0.0175081 1.23209 -0.0884599
-0.0116721 1.23209 -0.0884599
-0.00583605 1.23209 -0.0884599
0 1.23209 -0.0884599
0.00583605 1.23209 -0.0884599
0.0117202 1.23717 -0.0888245
0.0175803 1.23717 -0.0888245
0.0235174 1.24123 -0.0891162
0.0293968 1.24123 -0.0891162
0.0353916 1.24529 -0.0894079
0.0414586 1.25037 -0.0897726
0.0475352 1.25443 -0.0900643
0.0534771 1.25443 -0.0900643
0.0592265 1.25037 -0.0897726
0.0653609 1.25443 -0.0900643
0.0715914 1.25951 -0.0904289
0.0778076 1.26358 -0.0907206
0.0835233 1.25951 -0.0904289
0.089778 1.26358 -0.0907206
0.0957632 1.26358 -0.0907206
0.102157 1.26865 -0.0910852
0.107734 1.26358 -0.0907206
-0.380358 1.31478 -0.100536
-0.371236 1.30463 -0.09976
-0.361075 1.29043 -0.0986739
-0.35356 1.28536 -0.0982861
-0.347464 1.28536 -0.0982861
-0.341368 1.28536 -0.0982861
-0.335272 1.28536 -0.0982861
-0.320785 1.27623 -0.0975879
-0.314733 1.27623 -0.0975879
-0.307453 1.27116 -0.0972
-0.300463 1.2671 -0.0968897
-0.287289 1.26203 -0.0965019
-0.2804 1.25797 -0.0961916
-0.274434 1.25797 -0.0961916
-0.268468 1.25797 -0.0961916
-0.244604 1.25797 -0.0961916
-0.236906 1.24884 -0.0954934
-0.229295 1.23971 -0.0947952
-0.224147 1.24377 -0.0951055
-0.217536 1.23971 -0.0947952
-0.210098 1.23058 -0.0940971
-0.203588 1.22652 -0.0937868
-0.197117 1.22246 -0.0934765
-0.18862 1.20521 -0.0921577
-0.18352 1.20927 -0.092468
-0.178382 1.21333 -0.0927783
-0.173349 1.2184 -0.0931662
-0.167571 1.2184 -0.0931662
-0.161793 1.2184 -0.0931662
-0.156014 1.2184 -0.0931662
-0.150236 1.2184 -0.0931662
-0.144939 1.22246 -0.0934765
-0.13868 1.2184 -0.0931662
-0.133344 1.22246 -0.0934765
-0.127546 1.22246 -0.0934765
-0.120839 1.21333 -0.0927783
-0.115085 1.21333 -0.0927783
-0.109788 1.2184 -0.0931662
-0.10401 1.2184 -0.0931662
-0.0982313 1.2184 -0.0931662
-0.0930689 1.22652 -0.0937868
-0.0869634 1.22246 -0.0934765
-0.0811658 1.22246 -0.0934765
-0.0753683 1.22246 -0.0934765
-0.0698016 1.22652 -0.0937868
-0.0639848 1.22652 -0.0937868
-0.0579756 1.22246 -0.0934765
-0.052178 1.22246 -0.0934765
-0.0463805 1.22246 -0.0934765
-0.0407176 1.22652 -0.0937868
-0.0349008 1.22652 -0.0937868
-0.029084 1.22652 -0.0937868
-0.0232672 1.22652 -0.0937868
-0.0175081 1.23058 -0.0940971
-0.0116721 1.23058 -0.0940971
-0.0058168 1.22652 -0.0937868
0 1.23058 -0.0940971
0.0058168 1.22652 -0.0937868
0.0116721 1.23058 -0.0940971
0.0175803 1.23565 -0.0944849
0.0235174 1.23971 -0.0947952
0.029493 1.24377 -0.0951055
0.0353916 1.24377 -0.0951055
0.0414586 1.24884 -0.0954934
0.0473812 1.24884 -0.0954934
0.0534771 1.2529 -0.0958037
0.059419 1.2529 -0.0958037
0.0653609 1.2529 -0.0958037
0.0713028 1.2529 -0.0958037
0.0775574 1.25797 -0.0961916
0.0841296 1.2671 -0.0968897
0.0904275 1.27116 -0.0972
0.0961481 1.2671 -0.0968897
0.102157 1.2671 -0.0968897
0.108167 1.2671 -0.0968897
-0.374782 1.29391 -0.104996
-0.365751 1.28378 -0.104174
-0.355681 1.2696 -0.103023
-0.349653 1.2696 -0.103023
-0.343624 1.2696 -0.103023
-0.337596 1.2696 -0.103023
-0.329186 1.26048 -0.102283
-0.3245 1.26554 -0.102694
-0.317215 1.26048 -0.102283
-0.312481 1.26554 -0.102694
-0.298298 1.25642 -0.101954
-0.292332 1.25642 -0.101954
-0.286366 1.25642 -0.101954
-0.279269 1.25136 -0.101543
-0.273327 1.25136 -0.101543
-0.267385 1.25136 -0.101543
-0.261443 1.25136 -0.101543
-0.256536 1.25642 -0.101954
-0.24956 1.25136 -0.101543
-0.242829 1.2473 -0.101214
-0.236906 1.2473 -0.101214
-0.229295 1.23819 -0.100474
-0.222684 1.23413 -0.100145
-0.215934 1.22907 -0.0997343
-0.209405 1.22501 -0.0994054
-0.202915 1.22096 -0.0990765
-0.197117 1.22096 -0.0990765
-0.191319 1.22096 -0.0990765
-0.185522 1.22096 -0.0990765
-0.179128 1.21691 -0.0987476
-0.17205 1.20779 -0.0980076
-0.166873 1.21184 -0.0983365
-0.161119 1.21184 -0.0983365
-0.156014 1.21691 -0.0987476
-0.150236 1.21691 -0.0987476
-0.144458 1.21691 -0.0987476
-0.138102 1.21184 -0.0983365
-0.132901 1.21691 -0.0987476
-0.127123 1.21691 -0.0987476
-0.121345 1.21691 -0.0987476
-0.115085 1.21184 -0.0983365
-0.109788 1.21691 -0.0987476
-0.10401 1.21691 -0.0987476
-0.0982313 1.21691 -0.0987476
-0.0927609 1.22096 -0.0990765
-0.0869634 1.22096 -0.0990765
-0.0811658 1.22096 -0.0990765
-0.0751181 1.21691 -0.0987476
-0.0693398 1.21691 -0.0987476
-0.0639848 1.22501 -0.0994054
-0.0579756 1.22096 -0.0990765
-0.0520048 1.21691 -0.0987476
-0.0463805 1.22096 -0.0990765
-0.0407176 1.22501 -0.0994054
-0.0347854 1.22096 -0.0990765
-0.029084 1.22501 -0.0994054
-0.0232672 1.22501 -0.0994054
-0.0174504 1.22501 -0.0994054
-0.0116336 1.22501 -0.0994054
-0.0058168 1.22501 -0.0994054
0 1.22907 -0.0997343
0.0058168 1.22501 -0.0994054
0.0116336 1.22501 -0.0994054
0.0174504 1.22501 -0.0994054
0.0233442 1.22907 -0.0997343
0.0293005 1.23413 -0.100145
0.0352761 1.23819 -0.100474
0.0411555 1.23819 -0.100474
0.0470348 1.23819 -0.100474
0.0530874 1.24224 -0.100803
0.0592265 1.2473 -0.101214
0.0653609 1.25136 -0.101543
0.0713028 1.25136 -0.101543
0.0772447 1.25136 -0.101543
0.0837928 1.26048 -0.102283
0.0901388 1.26554 -0.102694
0.102157 1.26554 -0.102694
0.107734 1.26048 -0.102283
-0.353127 1.25893 -0.108064
-0.348537 1.26399 -0.108499
-0.341156 1.25893 -0.108064
-0.332746 1.24982 -0.107283
-0.328127 1.25488 -0.107717
-0.320862 1.24982 -0.107283
-0.314921 1.24982 -0.107283
-0.31023 1.25488 -0.107717
-0.303037 1.24982 -0.107283
-0.29493 1.24071 -0.106501
-0.289031 1.24071 -0.106501
-0.284287 1.24577 -0.106935
-0.279269 1.24982 -0.107283
-0.271335 1.24071 -0.106501
-0.265437 1.24071 -0.106501
-0.259538 1.24071 -0.106501
-0.254674 1.24577 -0.106935
-0.241842 1.24071 -0.106501
-0.234404 1.23262 -0.105806
-0.228544 1.23262 -0.105806
-0.22177 1.22756 -0.105371
-0.215934 1.22756 -0.105371
-0.209405 1.22351 -0.105024
-0.202915 1.21946 -0.104677
-0.196463 1.21541 -0.104329
-0.190684 1.21541 -0.104329
-0.184906 1.21541 -0.104329
-0.178382 1.21035 -0.103895
-0.17205 1.2063 -0.103547
-0.166315 1.2063 -0.103547
-0.161119 1.21035 -0.103895
-0.155365 1.21035 -0.103895
-0.149611 1.21035 -0.103895
-0.143856 1.21035 -0.103895
-0.138102 1.21035 -0.103895
-0.132348 1.21035 -0.103895
-0.12797 1.22351 -0.105024
-0.121345 1.21541 -0.104329
-0.11393 1.19821 -0.102852
-0.109331 1.21035 -0.103895
-0.10323 1.2063 -0.103547
-0.0978224 1.21035 -0.103895
-0.092453 1.21541 -0.104329
-0.0863139 1.21035 -0.103895
-0.0805596 1.21035 -0.103895
-0.0748053 1.21035 -0.103895
-0.0695707 1.21946 -0.104677
-0.0639848 1.22351 -0.105024
-0.0579756 1.21946 -0.104677
-0.0520048 1.21541 -0.104329
-0.0463805 1.21946 -0.104677
-0.0405829 1.21946 -0.104677
-0.0347854 1.21946 -0.104677
-0.0289878 1.21946 -0.104677
-0.0231902 1.21946 -0.104677
-0.0173927 1.21946 -0.104677
-0.0115951 1.21946 -0.104677
-0.0058168 1.22351 -0.105024
0 1.21946 -0.104677
0.00577831 1.21541 -0.104329
0.0115951 1.21946 -0.104677
0.0173349 1.21541 -0.104329
0.0231133 1.21541 -0.104329
0.029084 1.22351 -0.105024
0.0350163 1.22756 -0.105371
0.0410207 1.23262 -0.105806
0.0470348 1.23666 -0.106153
0.0530874 1.24071 -0.106501
0.058986 1.24071 -0.106501
0.0653609 1.24982 -0.107283
0.0713028 1.24982 -0.107283
0.0769945 1.24577 -0.106935
0.0831866 1.24982 -0.107283
0.089778 1.25893 -0.108064
0.0961481 1.26399 -0.108499
0.102157 1.26399 -0.108499
-0.354546 1.26243 -0.114303
-0.346025 1.25334 -0.11348
-0.338688 1.24828 -0.113022
-0.332746 1.24828 -0.113022
-0.324423 1.23919 -0.112198
-0.318524 1.23919 -0.112198
-0.312626 1.23919 -0.112198
-0.306727 1.23919 -0.112198
-0.298865 1.2311 -0.111466
-0.291802 1.22605 -0.111009
-0.287145 1.2311 -0.111466
-0.282209 1.23514 -0.111832
-0.275425 1.2311 -0.111466
-0.269565 1.2311 -0.111466
-0.263705 1.2311 -0.111466
-0.258691 1.23514 -0.111832
-0.252812 1.23514 -0.111832
-0.246933 1.23514 -0.111832
-0.241053 1.23514 -0.111832
-0.234404 1.2311 -0.111466
-0.226855 1.222 -0.110643
-0.22177 1.22605 -0.111009
-0.215934 1.22605 -0.111009
-0.208019 1.21392 -0.10991
-0.200725 1.20482 -0.109087
-0.195645 1.20886 -0.109453
-0.189891 1.20886 -0.109453
-0.185522 1.21796 -0.110277
-0.179128 1.21392 -0.10991
-0.172628 1.20886 -0.109453
-0.166315 1.20482 -0.109087
-0.159503 1.19673 -0.108355
-0.154845 1.20482 -0.109087
-0.150236 1.21392 -0.10991
-0.143856 1.20886 -0.109453
-0.137178 1.20078 -0.108721
-0.131905 1.20482 -0.109087
-0.126594 1.20886 -0.109453
-0.120839 1.20886 -0.109453
-0.115566 1.21392 -0.10991
-0.1086 1.20078 -0.108721
-0.102884 1.20078 -0.108721
-0.0974952 1.20482 -0.109087
-0.092453 1.21392 -0.10991
-0.0863139 1.20886 -0.109453
-0.0800207 1.20078 -0.108721
-0.0748053 1.20886 -0.109453
-0.0695707 1.21796 -0.110277
-0.0637732 1.21796 -0.110277
-0.0577831 1.21392 -0.10991
-0.0517883 1.20886 -0.109453
-0.0463805 1.21796 -0.110277
-0.0405829 1.21796 -0.110277
-0.0347854 1.21796 -0.110277
-0.0288916 1.21392 -0.10991
-0.0231133 1.21392 -0.10991
-0.0173927 1.21796 -0.110277
-0.0115566 1.21392 -0.10991
-0.00577831 1.21392 -0.10991
0 1.20886 -0.109453
0.00577831 1.21392 -0.10991
0.0115951 1.21796 -0.110277
0.0173349 1.21392 -0.10991
0.023017 1.20886 -0.109453
0.029084 1.222 -0.110643
0.0351606 1.2311 -0.111466
0.0410207 1.2311 -0.111466
0.0470348 1.23514 -0.111832
0.0529142 1.23514 -0.111832
0.0587935 1.23514 -0.111832
0.0648845 1.23919 -0.112198
0.0713028 1.24828 -0.113022
0.0772447 1.24828 -0.113022
0.0829171 1.24424 -0.112656
0.0888398 1.24424 -0.112656
0.0954552 1.25334 -0.11348
0.101748 1.25738 -0.113846
0.107387 1.25334 -0.11348
-0.363153 1.26996 -0.120973
-0.354546 1.26088 -0.120108
-0.346025 1.25179 -0.119242
-0.341156 1.25583 -0.119627
-0.334093 1.25179 -0.119242
-0.325746 1.24271 -0.118377
-0.318524 1.23766 -0.117896
-0.310586 1.22958 -0.117127
-0.302474 1.2205 -0.116261
-0.294694 1.21242 -0.115492
-0.29084 1.2205 -0.116261
-0.285966 1.22453 -0.116646
-0.279207 1.2205 -0.116261
-0.272485 1.21646 -0.115877
-0.268458 1.22453 -0.116646
-0.262622 1.22453 -0.116646
-0.258691 1.23362 -0.117511
-0.251985 1.22958 -0.117127
-0.246124 1.22958 -0.117127
-0.241053 1.23362 -0.117511
-0.235174 1.23362 -0.117511
-0.226855 1.2205 -0.116261
-0.219576 1.21242 -0.115492
-0.216824 1.22958 -0.117127
-0.209405 1.2205 -0.116261
-0.200725 1.20334 -0.114626
-0.195645 1.20737 -0.115011
-0.190684 1.21242 -0.115492
-0.185522 1.21646 -0.115877
-0.179724 1.21646 -0.115877
-0.173349 1.21242 -0.115492
-0.165757 1.1993 -0.114242
-0.160041 1.1993 -0.114242
-0.155365 1.20737 -0.115011
-0.149611 1.20737 -0.115011
-0.143856 1.20737 -0.115011
-0.13764 1.20334 -0.114626
-0.131463 1.1993 -0.114242
-0.125747 1.1993 -0.114242
-0.120435 1.20334 -0.114626
-0.115085 1.20737 -0.115011
-0.108965 1.20334 -0.114626
-0.103577 1.20737 -0.115011
-0.0982313 1.21242 -0.115492
-0.0917602 1.20334 -0.114626
-0.0860252 1.20334 -0.114626
-0.0805596 1.20737 -0.115011
-0.0751181 1.21242 -0.115492
-0.0688202 1.20334 -0.114626
-0.0630851 1.20334 -0.114626
-0.0573501 1.20334 -0.114626
-0.0517883 1.20737 -0.115011
-0.0462265 1.21242 -0.115492
-0.0402798 1.20737 -0.115011
-0.0344101 1.20334 -0.114626
-0.0288916 1.21242 -0.115492
-0.0231133 1.21242 -0.115492
-0.0172628 1.20737 -0.115011
-0.0115566 1.21242 -0.115492
-0.00577831 1.21242 -0.115492
0 1.21242 -0.115492
0.00577831 1.21242 -0.115492
0.0115566 1.21242 -0.115492
0.0173349 1.21242 -0.115492
0.023017 1.20737 -0.115011
0.0289878 1.21646 -0.115877
0.0350163 1.22453 -0.116646
0.0410207 1.22958 -0.117127
0.0468808 1.22958 -0.117127
0.0527409 1.22958 -0.117127
0.0583605 1.22453 -0.116646
0.0641965 1.22453 -0.116646
0.0705522 1.23362 -0.117511
0.0769945 1.24271 -0.118377
0.0825803 1.23766 -0.117896
0.0888398 1.24271 -0.118377
0.0950703 1.24674 -0.118761
0.101421 1.25179 -0.119242
0.107387 1.25179 -0.119242
0.113353 1.25179 -0.119242
-0.353127 1.25428 -0.125408
-0.346025 1.25025 -0.125005
-0.341156 1.25428 -0.125408
-0.334093 1.25025 -0.125005
-0.325746 1.24117 -0.124098
-0.317485 1.2321 -0.12319
-0.307271 1.21496 -0.121477
-0.300472 1.21093 -0.121073
-0.295676 1.21496 -0.121477
-0.289878 1.21496 -0.121477
-0.285023 1.21899 -0.12188
-0.278283 1.21496 -0.121477
-0.272485 1.21496 -0.121477
-0.269565 1.22807 -0.122787
-0.262622 1.22302 -0.122283
-0.256786 1.22302 -0.122283
-0.25095 1.22302 -0.122283
-0.245114 1.22302 -0.122283
-0.240264 1.22807 -0.122787
-0.233442 1.22302 -0.122283
-0.227606 1.22302 -0.122283
-0.22177 1.22302 -0.122283
-0.215222 1.21899 -0.12188
-0.208712 1.21496 -0.121477
-0.202241 1.21093 -0.121073
-0.196463 1.21093 -0.121073
-0.189891 1.20588 -0.120569
-0.184906 1.21093 -0.121073
-0.180321 1.21899 -0.12188
-0.173349 1.21093 -0.121073
-0.166873 1.20588 -0.120569
-0.161793 1.21093 -0.121073
-0.155365 1.20588 -0.120569
-0.149611 1.20588 -0.120569
-0.142894 1.19782 -0.119763
-0.138102 1.20588 -0.120569
-0.132348 1.20588 -0.120569
-0.12617 1.20185 -0.120166
-0.120435 1.20185 -0.120166
-0.113546 1.18975 -0.118956
-0.1086 1.19782 -0.119763
-0.104356 1.21496 -0.121477
-0.0985585 1.21496 -0.121477
-0.0920681 1.20588 -0.120569
-0.0869634 1.21496 -0.121477
-0.0811658 1.21496 -0.121477
-0.0748053 1.20588 -0.120569
-0.0688202 1.20185 -0.120166
-0.0635615 1.21093 -0.121073
-0.0577831 1.21093 -0.121073
-0.0514419 1.19782 -0.119763
-0.0458801 1.20185 -0.120166
-0.0401451 1.20185 -0.120166
-0.0344101 1.20185 -0.120166
-0.0286751 1.20185 -0.120166
-0.023017 1.20588 -0.120569
-0.0172628 1.20588 -0.120569
-0.01147 1.20185 -0.120166
-0.00573501 1.20185 -0.120166
0 1.21093 -0.121073
0.00577831 1.21093 -0.121073
0.0115951 1.21496 -0.121477
0.0173927 1.21496 -0.121477
0.023017 1.20588 -0.120569
0.0289878 1.21496 -0.121477
0.0347854 1.21496 -0.121477
0.0407176 1.21899 -0.12188
0.0466884 1.22302 -0.122283
0.0527409 1.22807 -0.122787
0.0583605 1.22302 -0.122283
0.0639848 1.21899 -0.12188
0.0695707 1.21496 -0.121477
0.0761814 1.22807 -0.122787
0.0825803 1.23613 -0.123594
0.0888398 1.24117 -0.124098
0.0947624 1.24117 -0.124098
0.100276 1.23613 -0.123594
0.106608 1.24117 -0.124098
-0.348537 1.25777 -0.131717
-0.341156 1.25273 -0.131189
-0.332746 1.24367 -0.13024
-0.325746 1.23964 -0.129818
-0.319823 1.23964 -0.129818
-0.310586 1.22655 -0.128448
-0.303475 1.22151 -0.12792
-0.295676 1.21346 -0.127077
-0.289878 1.21346 -0.127077
-0.285023 1.21749 -0.127498
-0.279207 1.21749 -0.127498
-0.274294 1.22151 -0.12792
-0.268458 1.22151 -0.12792
-0.261756 1.21749 -0.127498
-0.255939 1.21749 -0.127498
-0.250123 1.21749 -0.127498
-0.243497 1.21346 -0.127077
-0.238489 1.21749 -0.127498
-0.232672 1.21749 -0.127498
-0.224416 1.20439 -0.126127
-0.220307 1.21346 -0.127077
-0.215222 1.21749 -0.127498
-0.208019 1.20943 -0.126655
-0.201399 1.20439 -0.126127
-0.193027 1.18828 -0.12444
-0.189255 1.20037 -0.125706
-0.186138 1.21749 -0.127498
-0.179724 1.21346 -0.127077
-0.173927 1.21346 -0.127077
-0.166873 1.20439 -0.126127
-0.160041 1.19634 -0.125284
-0.156014 1.20943 -0.126655
-0.149611 1.20439 -0.126127
-0.142413 1.19231 -0.124862
-0.137178 1.19634 -0.125284
-0.132348 1.20439 -0.126127
-0.126594 1.20439 -0.126127
-0.120839 1.20439 -0.126127
-0.114315 1.19634 -0.125284
-0.1086 1.19634 -0.125284
-0.103577 1.20439 -0.126127
-0.097168 1.19634 -0.125284
-0.0917602 1.20037 -0.125706
-0.0866747 1.20943 -0.126655
-0.0805596 1.20439 -0.126127
-0.074305 1.19634 -0.125284
-0.0690511 1.20439 -0.126127
-0.0637732 1.21346 -0.127077
-0.0575426 1.20439 -0.126127
-0.0514419 1.19634 -0.125284
-0.0458801 1.20037 -0.125706
-0.0402798 1.20439 -0.126127
-0.0345255 1.20439 -0.126127
-0.0287713 1.20439 -0.126127
-0.023017 1.20439 -0.126127
-0.0173927 1.21346 -0.127077
-0.0115951 1.21346 -0.127077
-0.00573501 1.20037 -0.125706
0 1.20439 -0.126127
0.00577831 1.20943 -0.126655
0.0115566 1.20943 -0.126655
0.0173927 1.21346 -0.127077
0.0231133 1.20943 -0.126655
0.0288916 1.20943 -0.126655
0.0347854 1.21346 -0.127077
0.0401451 1.20037 -0.125706
0.0457261 1.19634 -0.125284
0.0517883 1.20439 -0.126127
0.0577831 1.20943 -0.126655
0.0639848 1.21749 -0.127498
0.0698016 1.21749 -0.127498
0.0756185 1.21749 -0.127498
0.0817047 1.22151 -0.12792
0.0881903 1.23058 -0.128869
0.0950703 1.24367 -0.13024
0.100276 1.23461 -0.129291
0.106608 1.23964 -0.129818
-0.346025 1.24716 -0.13653
-0.340059 1.24716 -0.13653
-0.331668 1.23811 -0.135539
-0.325746 1.23811 -0.135539
-0.316446 1.22503 -0.134108
-0.308291 1.21598 -0.133117
-0.302474 1.21598 -0.133117
-0.295676 1.21196 -0.132677
-0.288916 1.20793 -0.132236
-0.283137 1.20793 -0.132236
-0.277359 1.20793 -0.132236
-0.27045 1.20291 -0.131686
-0.267573 1.21598 -0.133117
-0.263705 1.22503 -0.134108
-0.255939 1.21598 -0.133117
-0.249295 1.21196 -0.132677
-0.243497 1.21196 -0.132677
-0.2377 1.21196 -0.132677
-0.232672 1.21598 -0.133117
-0.227606 1.22 -0.133557
-0.22177 1.22 -0.133557
-0.21451 1.21196 -0.132677
-0.208019 1.20793 -0.132236
-0.202915 1.21196 -0.132677
-0.197117 1.21196 -0.132677
-0.191319 1.21196 -0.132677
-0.185522 1.21196 -0.132677
-0.179128 1.20793 -0.132236
-0.172628 1.20291 -0.131686
-0.168129 1.21196 -0.132677
-0.161793 1.20793 -0.132236
-0.154326 1.19486 -0.130805
-0.14861 1.19486 -0.130805
-0.143375 1.19888 -0.131245
-0.138102 1.20291 -0.131686
-0.131905 1.19888 -0.131245
-0.126594 1.20291 -0.131686
-0.121345 1.20793 -0.132236
-0.115085 1.20291 -0.131686
-0.108234 1.19084 -0.130364
-0.102884 1.19486 -0.130805
-0.0978224 1.20291 -0.131686
-0.092453 1.20793 -0.132236
-0.0875407 1.22 -0.133557
-0.0814353 1.21598 -0.133117
-0.0751181 1.20793 -0.132236
-0.0690511 1.20291 -0.131686
-0.0635615 1.20793 -0.132236
-0.0579756 1.21196 -0.132677
-0.0523512 1.21598 -0.133117
-0.0462265 1.20793 -0.132236
-0.0404482 1.20793 -0.132236
-0.0345255 1.20291 -0.131686
-0.0287713 1.20291 -0.131686
-0.0231902 1.21196 -0.132677
-0.0173349 1.20793 -0.132236
-0.0115566 1.20793 -0.132236
-0.00579756 1.21196 -0.132677
0 1.20793 -0.132236
0.00573501 1.19888 -0.131245
