ply
format ascii 1.0
comment Created by Open3D
element vertex 1621
property double x
property double y
property double z
end_header
0.0123409 0.175914 -0.181353
0.0135316 0.174518 -0.179914
0.0147611 0.17382 -0.179194
0.0161091 0.174518 -0.179914
0.0173282 0.17382 -0.179194
0.0183876 0.171726 -0.177035
0.0195758 0.171028 -0.176316
0.0207537 0.17033 -0.175596
0.0219213 0.169632 -0.174876
0.0231739 0.169632 -0.174876
0.0247281 0.171726 -0.177035
0.0271587 0.179405 -0.184951
0.028816 0.181499 -0.18711
0.0312001 0.187781 -0.193587
-0.0938555 0.165201 -0.172067
-0.0906827 0.161731 -0.168452
-0.0882805 0.161731 -0.168452
-0.088948 0.165201 -0.172067
-0.0847725 0.159648 -0.166283
-0.0824013 0.159648 -0.166283
-0.07953 0.161037 -0.167729
-0.0779964 0.160342 -0.167006
-0.0771381 0.161037 -0.167729
-0.0762695 0.161731 -0.168452
-0.0757128 0.163119 -0.169898
-0.0741844 0.162425 -0.169175
-0.0742256 0.165201 -0.172067
-0.0736122 0.16659 -0.173512
-0.072375 0.16659 -0.173512
-0.0717306 0.167978 -0.174958
-0.0701919 0.167284 -0.174235
-0.0689495 0.167284 -0.174235
-0.0682691 0.168672 -0.175681
-0.066635 0.174225 -0.181465
-0.0648205 0.172837 -0.180019
-0.0632817 0.172143 -0.179296
-0.0622533 0.172837 -0.180019
-0.0612146 0.173531 -0.180742
-0.0632817 0.183249 -0.190864
-0.0598717 0.181166 -0.188695
-0.0571809 0.177001 -0.184357
-0.0558664 0.177001 -0.184357
-0.0547658 0.177696 -0.18508
-0.0551163 0.183249 -0.190864
-0.0521935 0.187413 -0.195202
-0.0502372 0.185331 -0.193033
-0.0483118 0.183249 -0.190864
-0.0469509 0.183249 -0.190864
-0.0455901 0.183249 -0.190864
-0.0424507 0.187413 -0.195202
-0.0415151 0.189496 -0.19737
-0.0396671 0.187413 -0.195202
-0.038417 0.188107 -0.195925
-0.03702 0.188107 -0.195925
-0.0299243 0.187413 -0.195202
-0.0282154 0.185331 -0.193033
-0.0269396 0.186025 -0.193756
-0.0259395 0.188802 -0.196648
-0.0201815 0.187413 -0.195202
-0.0180937 0.180472 -0.187972
-0.0168179 0.181166 -0.188695
-0.0154725 0.181166 -0.188695
-0.0141812 0.18186 -0.189418
-0.00887934 0.183943 -0.191587
-0.00728647 0.17839 -0.185803
-0.00589207 0.176307 -0.183634
-0.00458272 0.176307 -0.183634
-0.00329914 0.177696 -0.18508
-0.00208774 0.187413 -0.195202
0.00322182 0.173531 -0.180742
0.00449251 0.172837 -0.180019
0.00582247 0.174225 -0.181465
0.00711636 0.174225 -0.181465
0.00851076 0.176307 -0.183634
0.0129775 0.183943 -0.191587
0.013694 0.175613 -0.182911
0.0147611 0.172837 -0.180019
0.0161091 0.173531 -0.180742
0.0171891 0.171448 -0.178573
0.0183876 0.170754 -0.17785
0.0195758 0.17006 -0.177127
0.0207537 0.169366 -0.176404
0.0219213 0.168672 -0.175681
0.0231739 0.168672 -0.175681
0.024326 0.167978 -0.174958
0.0257849 0.169366 -0.176404
0.0273752 0.171448 -0.178573
0.0299243 0.179084 -0.186526
0.0312542 0.179084 -0.186526
-0.0942834 0.162881 -0.171403
-0.0871438 0.15874 -0.167045
-0.0859582 0.15874 -0.167045
-0.0807259 0.16012 -0.168497
-0.0791872 0.15943 -0.167771
-0.0783341 0.16012 -0.168497
-0.0771381 0.16012 -0.168497
-0.0772515 0.162881 -0.171403
-0.076035 0.162881 -0.171403
-0.0748184 0.162881 -0.171403
-0.0742256 0.164261 -0.172855
-0.0736122 0.165642 -0.174308
-0.0732797 0.167712 -0.176487
-0.0717306 0.167022 -0.17576
-0.0701919 0.166332 -0.175034
-0.0692356 0.167022 -0.17576
-0.0682691 0.167712 -0.176487
-0.0683954 0.171163 -0.180118
-0.0669005 0.173924 -0.183023
-0.0648205 0.171853 -0.180844
-0.0635369 0.171853 -0.180844
-0.0625033 0.172544 -0.181571
-0.0612146 0.172544 -0.181571
-0.0604053 0.173924 -0.183023
-0.0619363 0.186347 -0.196096
-0.0574051 0.176685 -0.185928
-0.0560855 0.176685 -0.185928
-0.0547658 0.176685 -0.185928
-0.0540725 0.178755 -0.188107
-0.05316 0.189798 -0.199728
-0.0500491 0.183586 -0.193191
-0.0484948 0.182896 -0.192465
-0.0471288 0.182896 -0.192465
-0.0459354 0.183586 -0.193191
-0.0422935 0.185657 -0.19537
-0.0410589 0.186347 -0.196096
-0.0396671 0.186347 -0.196096
-0.0382752 0.186347 -0.196096
-0.03702 0.187037 -0.196822
-0.0316641 0.188418 -0.198275
-0.0295918 0.184277 -0.193917
-0.0283211 0.184967 -0.194644
-0.0268391 0.184277 -0.193917
-0.0266071 0.192559 -0.202633
-0.0198078 0.182896 -0.192465
-0.0181633 0.180136 -0.18956
-0.0167535 0.179445 -0.188833
-0.0154132 0.179445 -0.188833
-0.014127 0.180136 -0.18956
-0.0087118 0.179445 -0.188833
-0.00722977 0.175994 -0.185202
-0.00589207 0.175304 -0.184476
-0.00458272 0.175304 -0.184476
-0.00331203 0.177375 -0.186655
0.00197175 0.175994 -0.185202
0.00322182 0.172544 -0.181571
0.00449251 0.171853 -0.180844
0.00582247 0.173234 -0.182297
0.00714471 0.173924 -0.183023
0.00881232 0.181516 -0.191012
0.0143435 0.182896 -0.192465
0.0148797 0.173234 -0.182297
0.0160447 0.171853 -0.180844
0.0172586 0.171163 -0.180118
0.0183876 0.169783 -0.178665
0.0197356 0.170473 -0.179392
0.0208387 0.169093 -0.177939
0.0220115 0.168403 -0.177213
0.0232693 0.168403 -0.177213
0.0244266 0.167712 -0.176487
0.0254678 0.166332 -0.175034
0.0267102 0.166332 -0.175034
0.0277205 0.164952 -0.173581
0.029316 0.167022 -0.17576
0.0309424 0.169093 -0.177939
0.0328626 0.172544 -0.181571
0.035654 0.180136 -0.18956
0.0374247 0.182206 -0.191739
-0.114694 0.18734 -0.19918
-0.095487 0.159891 -0.169996
-0.0812157 0.157832 -0.167807
-0.0810739 0.159891 -0.169996
-0.0798728 0.159891 -0.169996
-0.0783341 0.159204 -0.169266
-0.0778031 0.160577 -0.170725
-0.0772515 0.161949 -0.172185
-0.0766793 0.163322 -0.173644
-0.0754525 0.163322 -0.173644
-0.075785 0.166753 -0.177292
-0.0791331 0.177046 -0.188236
-0.0759937 0.172929 -0.183858
-0.0723234 0.167439 -0.178021
-0.0701919 0.16538 -0.175833
-0.0692356 0.166067 -0.176562
-0.0679881 0.166067 -0.176562
-0.0678438 0.168811 -0.179481
-0.0755066 0.191457 -0.203557
-0.0695552 0.179791 -0.191154
-0.0648205 0.17087 -0.181669
-0.0635369 0.17087 -0.181669
-0.0625033 0.171556 -0.182399
-0.0612146 0.171556 -0.182399
-0.0599259 0.171556 -0.182399
-0.0642302 0.192143 -0.204287
-0.0580778 0.177732 -0.188965
-0.0563045 0.17636 -0.187506
-0.0551937 0.177046 -0.188236
-0.0536549 0.17636 -0.187506
-0.055588 0.18734 -0.19918
-0.0535467 0.190084 -0.202098
-0.0502372 0.183222 -0.194802
-0.0486778 0.182536 -0.194072
-0.0471288 0.18185 -0.193343
-0.0459354 0.182536 -0.194072
-0.0429224 0.18734 -0.19918
-0.041211 0.185967 -0.19772
-0.0401078 0.18734 -0.19918
-0.0385588 0.186653 -0.19845
-0.03702 0.185967 -0.19772
-0.035623 0.185967 -0.19772
-0.03178 0.188026 -0.199909
-0.0297026 0.183908 -0.195532
-0.0281097 0.182536 -0.194072
-0.0269396 0.183908 -0.195532
-0.0260349 0.18734 -0.19918
-0.0196583 0.180477 -0.191884
-0.0183025 0.180477 -0.191884
-0.0168823 0.179791 -0.191154
-0.0155318 0.179791 -0.191154
-0.0148307 0.188026 -0.199909
-0.00864479 0.177046 -0.188236
-0.00725812 0.175674 -0.186777
-0.00589207 0.174301 -0.185317
-0.00460076 0.174987 -0.186047
-0.00338936 0.180477 -0.191884
0.00195629 0.173615 -0.184588
0.00326048 0.173615 -0.184588
0.00452859 0.172243 -0.183129
0.00579928 0.171556 -0.182399
0.00717306 0.173615 -0.184588
0.0147018 0.170184 -0.18094
0.0158514 0.168811 -0.179481
0.0171195 0.168811 -0.179481
0.0184623 0.169498 -0.18021
0.0198155 0.170184 -0.18094
0.0209238 0.168811 -0.179481
0.0221017 0.168125 -0.178751
0.0231739 0.166753 -0.177292
0.0244266 0.166753 -0.177292
0.0254678 0.16538 -0.175833
0.0267102 0.16538 -0.175833
0.0277205 0.164008 -0.174373
0.0289526 0.164008 -0.174373
0.0303109 0.164694 -0.175103
0.031811 0.166067 -0.176562
0.0340147 0.17087 -0.181669
0.0360071 0.174301 -0.185317
-0.110073 0.178756 -0.192022
-0.098348 0.1617 -0.1737
-0.0835869 0.156924 -0.168569
-0.0824013 0.156924 -0.168569
-0.0815688 0.157606 -0.169302
-0.0814219 0.159653 -0.171501
-0.0802156 0.159653 -0.171501
-0.0790094 0.159653 -0.171501
-0.0781356 0.160335 -0.172234
-0.0772515 0.161017 -0.172967
-0.0766793 0.162382 -0.174432
-0.081476 0.175345 -0.188358
-0.0835818 0.18285 -0.19642
-0.0837338 0.186261 -0.200084
-0.0829297 0.187626 -0.20155
-0.0723234 0.166475 -0.17883
-0.0704831 0.165111 -0.177364
-0.0692356 0.165111 -0.177364
-0.0682691 0.165793 -0.178097
-0.0670164 0.165793 -0.178097
-0.0736122 0.185579 -0.199351
-0.0708826 0.182168 -0.195687
-0.0653411 0.171251 -0.18396
-0.0640472 0.171251 -0.18396
-0.0625033 0.170569 -0.183227
-0.0612146 0.170569 -0.183227
-0.0601656 0.171251 -0.18396
-0.0633281 0.184215 -0.197886
-0.0585263 0.178074 -0.191289
-0.0567427 0.17671 -0.189824
-0.0554076 0.17671 -0.189824
-0.0538637 0.176027 -0.189091
-0.0549772 0.184215 -0.197886
-0.0508017 0.184215 -0.197886
-0.0486778 0.181486 -0.194954
-0.0473066 0.181486 -0.194954
-0.0461081 0.182168 -0.195687
-0.0462396 0.188308 -0.202283
-0.0446544 0.187626 -0.20155
-0.0429224 0.186261 -0.200084
-0.0415151 0.186261 -0.200084
-0.0401078 0.186261 -0.200084
-0.0385588 0.185579 -0.199351
-0.0367468 0.183532 -0.197153
-0.035623 0.184897 -0.198618
-0.0343523 0.185579 -0.199351
-0.0331925 0.186944 -0.200817
-0.0315481 0.185579 -0.199351
-0.0297026 0.18285 -0.19642
-0.0282154 0.182168 -0.195687
-0.0268391 0.182168 -0.195687
-0.0260349 0.186261 -0.200084
-0.0221326 0.188991 -0.203016
-0.0196583 0.179439 -0.192755
-0.0182329 0.178756 -0.192022
-0.0169468 0.179439 -0.192755
-0.015591 0.179439 -0.192755
-0.0150472 0.189673 -0.203749
-0.0105547 0.186261 -0.200084
-0.00861128 0.175345 -0.188358
-0.00728647 0.175345 -0.188358
-0.00591526 0.173981 -0.186892
-0.00463684 0.175345 -0.188358
-0.00350534 0.185579 -0.199351
0.00194856 0.171934 -0.184693
0.0032476 0.171934 -0.184693
0.00454663 0.171934 -0.184693
0.00579928 0.170569 -0.183227
0.00742823 0.178756 -0.192022
0.0140188 0.17671 -0.189824
0.0145832 0.16784 -0.180296
0.0158514 0.16784 -0.180296
0.0171195 0.16784 -0.180296
0.0184623 0.168522 -0.181029
0.0198954 0.169887 -0.182494
0.021264 0.170569 -0.183227
0.0221919 0.16784 -0.180296
0.0232693 0.166475 -0.17883
0.024326 0.165111 -0.177364
0.0254678 0.164429 -0.176631
0.0267102 0.164429 -0.176631
0.0279525 0.164429 -0.176631
0.0290737 0.163746 -0.175898
0.0301846 0.163064 -0.175165
0.0312852 0.162382 -0.174432
0.032512 0.162382 -0.174432
0.0340224 0.163746 -0.175898
0.036288 0.168522 -0.181029
0.0426079 0.184897 -0.198618
0.0417161 0.169887 -0.182494
-0.0843138 0.157372 -0.170804
-0.0834761 0.15805 -0.17154
-0.082275 0.15805 -0.17154
-0.0814219 0.158729 -0.172276
-0.0809012 0.160085 -0.173749
-0.0796846 0.160085 -0.173749
-0.0778031 0.158729 -0.172276
-0.0769242 0.159407 -0.173012
-0.0757128 0.159407 -0.173012
-0.0827441 0.177044 -0.192154
-0.0823265 0.185183 -0.200989
-0.0746947 0.170939 -0.185528
-0.0707744 0.164834 -0.178902
-0.0695217 0.164834 -0.178902
-0.0682691 0.164834 -0.178902
-0.0672922 0.165512 -0.179638
-0.0673876 0.168904 -0.183319
-0.0719445 0.183827 -0.199516
-0.0663824 0.172974 -0.187737
-0.0643024 0.170939 -0.185528
-0.0625033 0.169582 -0.184056
-0.0612146 0.169582 -0.184056
-0.0601656 0.17026 -0.184792
-0.0600444 0.173652 -0.188473
-0.0596475 0.180435 -0.195835
-0.0574 0.177722 -0.19289
-0.0554076 0.175687 -0.190682
-0.0538637 0.175009 -0.189945
-0.052941 0.176365 -0.191418
-0.0504254 0.181792 -0.197308
-0.0488608 0.181113 -0.196571
-0.0474845 0.181113 -0.196571
-0.0459354 0.180435 -0.195835
-0.0454019 0.183827 -0.199516
-0.0438425 0.183148 -0.19878
-0.0426079 0.183827 -0.199516
-0.0415151 0.185183 -0.200989
-0.039814 0.183827 -0.199516
-0.0382752 0.183148 -0.19878
-0.0368834 0.183148 -0.19878
-0.0354916 0.183148 -0.19878
-0.034226 0.183827 -0.199516
-0.0328291 0.183827 -0.199516
-0.0313161 0.183148 -0.19878
-0.0297026 0.181792 -0.197308
-0.0280041 0.179757 -0.195099
-0.0267385 0.180435 -0.195835
-0.0258442 0.183827 -0.199516
-0.0215733 0.183148 -0.19878
-0.0196583 0.1784 -0.193627
-0.0182329 0.177722 -0.19289
-0.0168823 0.177722 -0.19289
-0.015591 0.1784 -0.193627
-0.0104 0.18247 -0.198044
-0.00861128 0.17433 -0.189209
-0.00720141 0.172295 -0.187001
-0.00598485 0.175009 -0.189945
-0.00467293 0.175687 -0.190682
0.000675294 0.177722 -0.19289
0.00195629 0.171617 -0.186264
0.0032476 0.170939 -0.185528
0.00454663 0.170939 -0.185528
0.00586887 0.171617 -0.186264
0.0133151 0.166869 -0.181111
0.014524 0.16619 -0.180375
0.0157225 0.165512 -0.179638
0.0171195 0.166869 -0.181111
0.0185371 0.168225 -0.182583
0.020215 0.171617 -0.186264
0.023094 0.173652 -0.188473
0.0240322 0.170939 -0.185528
0.024326 0.164155 -0.178166
0.0255735 0.164155 -0.178166
0.026821 0.164155 -0.178166
0.0280685 0.164155 -0.178166
0.0290737 0.162799 -0.176693
0.0303109 0.162799 -0.176693
0.0314166 0.16212 -0.175957
0.032512 0.161442 -0.175221
0.0337389 0.161442 -0.175221
0.0349658 0.161442 -0.175221
0.0371051 0.165512 -0.179638
0.0388345 0.167547 -0.181847
0.0392959 0.164155 -0.178166
0.0402083 0.162799 -0.176693
0.0411001 0.161442 -0.175221
0.0421491 0.160764 -0.174485
-0.0847725 0.155107 -0.170093
-0.0846772 0.15713 -0.172312
-0.0838344 0.157805 -0.173051
-0.082275 0.15713 -0.172312
-0.0814219 0.157805 -0.173051
-0.0809012 0.159153 -0.174531
-0.0796846 0.159153 -0.174531
-0.0778031 0.157805 -0.173051
-0.0765969 0.157805 -0.173051
-0.0750684 0.15713 -0.172312
-0.0789398 0.16792 -0.184145
-0.0713569 0.165223 -0.181186
-0.0698078 0.164548 -0.180447
-0.0677072 0.162525 -0.178228
-0.0667407 0.1632 -0.178968
-0.0668463 0.166572 -0.182665
-0.0730065 0.185454 -0.203372
-0.0682047 0.176687 -0.193759
-0.0643024 0.169943 -0.186363
-0.0627533 0.169269 -0.185624
-0.0612146 0.168595 -0.184884
-0.0599259 0.168595 -0.184884
-0.0598099 0.171967 -0.188582
-0.0609929 0.183431 -0.201154
-0.0574 0.176687 -0.193759
-0.0558354 0.176013 -0.193019
-0.0542812 0.175338 -0.192279
-0.0527373 0.174664 -0.19154
-0.0543792 0.18478 -0.202633
-0.0529667 0.18478 -0.202633
-0.0509898 0.182757 -0.200414
-0.0490438 0.180734 -0.198196
-0.0474845 0.180059 -0.197456
-0.0462808 0.180734 -0.198196
-0.0447318 0.180059 -0.197456
-0.0436802 0.181408 -0.198935
-0.0426079 0.182757 -0.200414
-0.041211 0.182757 -0.200414
-0.0396671 0.182082 -0.199675
-0.0381335 0.181408 -0.198935
-0.0367468 0.181408 -0.198935
-0.0354916 0.182082 -0.199675
-0.0339735 0.181408 -0.198935
-0.0327079 0.182082 -0.199675
-0.0312001 0.181408 -0.198935
-0.0295918 0.180059 -0.197456
-0.0283211 0.180734 -0.198196
-0.0268391 0.180059 -0.197456
-0.0258442 0.182757 -0.200414
-0.0213336 0.180059 -0.197456
-0.0195088 0.176013 -0.193019
-0.0181633 0.176013 -0.193019
-0.0168179 0.176013 -0.193019
-0.0157689 0.179385 -0.196717
-0.0099361 0.173315 -0.190061
-0.00854427 0.171967 -0.188582
-0.00720141 0.171292 -0.187842
-0.00600805 0.174664 -0.19154
-0.00472706 0.176687 -0.193759
0.000672716 0.176013 -0.193019
0.00194856 0.169943 -0.186363
0.00323471 0.169269 -0.185624
0.00456468 0.170618 -0.187103
0.00589207 0.171292 -0.187842
0.0133151 0.165897 -0.181926
0.014524 0.165223 -0.181186
0.0157225 0.164548 -0.180447
0.0171195 0.165897 -0.181926
0.0186866 0.168595 -0.184884
0.0216532 0.182757 -0.200414
0.0240322 0.169943 -0.186363
0.0244266 0.163874 -0.179707
0.0253622 0.161851 -0.177489
0.026821 0.1632 -0.178968
0.0280685 0.1632 -0.178968
0.0291949 0.162525 -0.178228
0.0304372 0.162525 -0.178228
0.0315481 0.161851 -0.177489
0.0327852 0.161851 -0.177489
0.0335971 0.159828 -0.17527
0.0348189 0.159828 -0.17527
0.0361926 0.160502 -0.17601
0.0374195 0.160502 -0.17601
0.0389711 0.161851 -0.177489
0.0400408 0.161177 -0.176749
0.0409274 0.159828 -0.17527
0.042327 0.160502 -0.17601
-0.102511 0.163585 -0.181255
-0.0958582 0.154869 -0.171598
-0.0851411 0.154869 -0.171598
-0.0861309 0.158892 -0.176055
-0.0845509 0.158221 -0.175313
-0.0882779 0.167607 -0.185712
-0.0901208 0.173641 -0.192398
-0.0815868 0.159562 -0.176798
-0.079347 0.157551 -0.17457
-0.0774706 0.15621 -0.173084
-0.0762695 0.15621 -0.173084
-0.0750684 0.15621 -0.173084
-0.0757695 0.160233 -0.177541
-0.0713569 0.164255 -0.181998
-0.0692356 0.162244 -0.17977
-0.0677072 0.161574 -0.179027
-0.0670164 0.162914 -0.180513
-0.0663051 0.164255 -0.181998
-0.07221 0.182357 -0.202055
-0.063792 0.167607 -0.185712
-0.0625033 0.167607 -0.185712
-0.0614594 0.168278 -0.186455
-0.0599259 0.167607 -0.185712
-0.0586371 0.167607 -0.185712
-0.0571809 0.174982 -0.193884
-0.0556215 0.174312 -0.193141
-0.0542812 0.174312 -0.193141
-0.0531446 0.174982 -0.193884
-0.0527915 0.178334 -0.197598
-0.0520002 0.180346 -0.199827
-0.0506135 0.180346 -0.199827
-0.0488608 0.179005 -0.198341
-0.0471288 0.177664 -0.196855
-0.0461081 0.179005 -0.198341
-0.0447318 0.179005 -0.198341
-0.043193 0.178334 -0.197598
-0.0421363 0.179675 -0.199084
-0.0410589 0.181016 -0.200569
-0.0393732 0.179675 -0.199084
-0.0379917 0.179675 -0.199084
-0.0364736 0.179005 -0.198341
-0.0353601 0.180346 -0.199827
-0.0339735 0.180346 -0.199827
-0.0327079 0.181016 -0.200569
-0.0310841 0.179675 -0.199084
-0.0297026 0.179675 -0.199084
-0.0281097 0.178334 -0.197598
-0.0269396 0.179675 -0.199084
-0.0255581 0.179675 -0.199084
-0.0244472 0.181686 -0.201312
-0.0210939 0.176993 -0.196112
-0.0195088 0.174982 -0.193884
-0.0181633 0.174982 -0.193884
-0.0168823 0.175653 -0.194627
-0.016006 0.181016 -0.200569
-0.0120058 0.183698 -0.203541
-0.0099361 0.1723 -0.190912
-0.00861128 0.1723 -0.190912
-0.00731482 0.172971 -0.191655
-0.00605445 0.174982 -0.193884
0.000652096 0.169619 -0.187941
0.00194082 0.168278 -0.186455
0.00322182 0.167607 -0.185712
0.00454663 0.168948 -0.187198
0.00593846 0.17163 -0.19017
0.0127326 0.174312 -0.193141
0.0133693 0.165596 -0.183484
0.014524 0.164255 -0.181998
0.0158514 0.164926 -0.182741
0.0171891 0.165596 -0.183484
0.0198078 0.177664 -0.196855
0.0239059 0.177664 -0.196855
0.0235554 0.165596 -0.183484
0.024326 0.162244 -0.17977
0.0254678 0.161574 -0.179027
0.0265994 0.160903 -0.178284
0.0281845 0.162914 -0.180513
0.0295583 0.163585 -0.181255
0.0309424 0.164255 -0.181998
0.0315481 0.160903 -0.178284
0.0327852 0.160903 -0.178284
0.0334554 0.158221 -0.175313
0.0348189 0.158892 -0.176055
0.0360406 0.158892 -0.176055
0.0371051 0.158221 -0.175313
0.038484 0.158892 -0.176055
0.0397057 0.158892 -0.176055
0.0409274 0.158892 -0.176055
0.042327 0.159562 -0.176798
-0.0975181 0.156623 -0.175348
-0.0871438 0.153291 -0.171618
-0.0867056 0.154624 -0.17311
-0.086984 0.15729 -0.176095
-0.0894017 0.163954 -0.183556
-0.0895666 0.16662 -0.186541
-0.0925565 0.177284 -0.198479
-0.082958 0.161288 -0.180572
-0.079347 0.156623 -0.175348
-0.0774706 0.15529 -0.173856
-0.0762695 0.15529 -0.173856
-0.0757128 0.156623 -0.175348
-0.0754525 0.158622 -0.177587
-0.0851411 0.181949 -0.203703
-0.0817234 0.180616 -0.20221
-0.0770659 0.173285 -0.194002
-0.0716481 0.163954 -0.183556
-0.0689495 0.160622 -0.179825
-0.0677072 0.160622 -0.179825
-0.0667407 0.161288 -0.180572
-0.0660344 0.162621 -0.182064
-0.0706172 0.177284 -0.198479
-0.0653231 0.170619 -0.191018
-0.0627533 0.167287 -0.187287
-0.0614594 0.167287 -0.187287
-0.0599259 0.16662 -0.186541
-0.0588717 0.167287 -0.187287
-0.0578381 0.175951 -0.196987
-0.0560494 0.174618 -0.195495
-0.0542812 0.173285 -0.194002
-0.0535518 0.175285 -0.196241
-0.052593 0.176617 -0.197733
-0.0514203 0.177284 -0.198479
-0.0498609 0.176617 -0.197733
-0.0483118 0.175951 -0.196987
-0.0469509 0.175951 -0.196987
-0.0457627 0.176617 -0.197733
-0.0445642 0.177284 -0.198479
-0.0433554 0.17795 -0.199226
-0.041979 0.17795 -0.199226
-0.0409068 0.179283 -0.200718
-0.0392263 0.17795 -0.199226
-0.0377082 0.177284 -0.198479
-0.036337 0.177284 -0.198479
-0.0350972 0.17795 -0.199226
-0.0337209 0.17795 -0.199226
-0.0323445 0.17795 -0.199226
-0.0308522 0.177284 -0.198479
-0.0294809 0.177284 -0.198479
-0.0281097 0.177284 -0.198479
-0.0268391 0.17795 -0.199226
-0.0254627 0.17795 -0.199226
-0.0242668 0.179283 -0.200718
-0.0228801 0.179283 -0.200718
-0.0211738 0.176617 -0.197733
-0.0195835 0.174618 -0.195495
-0.0181633 0.173952 -0.194749
-0.0168179 0.173952 -0.194749
-0.0160653 0.180616 -0.20221
-0.0115238 0.175285 -0.196241
-0.00997476 0.171952 -0.19251
-0.00861128 0.171286 -0.191764
-0.00739988 0.173952 -0.194749
-0.00607764 0.174618 -0.195495
0.000652096 0.16862 -0.188779
0.00194856 0.167953 -0.188033
0.0032476 0.167953 -0.188033
0.00454663 0.167953 -0.188033
0.0115676 0.175951 -0.196987
0.012096 0.164621 -0.184302
0.0133151 0.163954 -0.183556
0.014524 0.163288 -0.18281
0.0158514 0.163954 -0.183556
0.017537 0.167953 -0.188033
0.0234549 0.173285 -0.194002
0.0231739 0.161955 -0.181318
0.0242255 0.160622 -0.179825
0.0253622 0.159955 -0.179079
0.0265994 0.159955 -0.179079
0.0280685 0.161288 -0.180572
0.0302851 0.16662 -0.186541
0.031195 0.164621 -0.184302
0.031811 0.161288 -0.180572
0.032512 0.158622 -0.177587
0.0337389 0.158622 -0.177587
0.0349658 0.158622 -0.177587
0.0360406 0.157956 -0.176841
0.0369478 0.156623 -0.175348
0.0381592 0.156623 -0.175348
0.0397057 0.157956 -0.176841
0.0407547 0.15729 -0.176095
0.0421491 0.157956 -0.176841
0.0455669 0.165954 -0.185795
-0.0867056 0.153707 -0.173879
-0.0891955 0.160333 -0.181373
-0.0817105 0.160333 -0.181373
-0.0784681 0.156358 -0.176877
-0.0769242 0.155695 -0.176127
-0.0763572 0.15702 -0.177626
-0.0754525 0.157683 -0.178375
-0.0807749 0.171596 -0.194115
-0.0800532 0.172921 -0.195613
-0.0817234 0.179546 -0.203108
-0.0731044 0.166296 -0.188119
-0.0698078 0.161658 -0.182872
-0.0679881 0.160333 -0.181373
-0.0667407 0.160333 -0.181373
-0.0657638 0.160995 -0.182123
-0.0703517 0.175571 -0.198611
-0.0650679 0.168946 -0.191117
-0.0630033 0.166958 -0.188868
-0.0617043 0.166958 -0.188868
-0.060645 0.167621 -0.189618
-0.0595753 0.168283 -0.190367
-0.0582763 0.176234 -0.199361
-0.0560494 0.173583 -0.196363
-0.05449 0.172921 -0.195613
-0.0533482 0.173583 -0.196363
-0.0521961 0.174246 -0.197112
-0.0504537 0.172921 -0.195613
-0.0492964 0.173583 -0.196363
-0.0481288 0.174246 -0.197112
-0.0467731 0.174246 -0.197112
-0.0455901 0.174908 -0.197862
-0.0443967 0.175571 -0.198611
-0.0433554 0.176896 -0.20011
-0.0421363 0.177559 -0.20086
-0.0406027 0.176896 -0.20011
-0.0393732 0.177559 -0.20086
-0.0378499 0.176896 -0.20011
-0.0364736 0.176896 -0.20011
-0.0350972 0.176896 -0.20011
-0.0335946 0.176234 -0.199361
-0.0319811 0.174908 -0.197862
-0.0305042 0.174246 -0.197112
-0.0292593 0.174908 -0.197862
-0.0282154 0.176896 -0.20011
-0.0269396 0.177559 -0.20086
-0.0253673 0.176234 -0.199361
-0.0240863 0.176896 -0.20011
-0.022795 0.177559 -0.20086
-0.0214934 0.178221 -0.201609
-0.0195835 0.173583 -0.196363
-0.0183025 0.174246 -0.197112
-0.0169468 0.174246 -0.197112
-0.0159467 0.178221 -0.201609
-0.0113485 0.171596 -0.194115
-0.0099361 0.170271 -0.192616
-0.0086783 0.171596 -0.194115
-0.00731482 0.170933 -0.193365
-0.00610084 0.174246 -0.197112
-0.000657251 0.168946 -0.191117
0.000652096 0.167621 -0.189618
0.00194082 0.166296 -0.188119
0.00323471 0.166296 -0.188119
0.00458272 0.168283 -0.190367
0.0110418 0.166958 -0.188868
0.012096 0.163645 -0.185121
0.0133151 0.162983 -0.184371
0.0145832 0.162983 -0.184371
0.0159158 0.163645 -0.185121
0.017885 0.170271 -0.192616
0.0224625 0.16497 -0.18662
0.0230785 0.160333 -0.181373
0.024326 0.160333 -0.181373
0.0252565 0.158345 -0.179125
0.0265994 0.159008 -0.179874
0.0286484 0.163645 -0.185121
0.0333884 0.168283 -0.190367
0.0327852 0.159008 -0.179874
0.0338807 0.158345 -0.179125
0.0349658 0.157683 -0.178375
0.0360406 0.15702 -0.177626
0.0371051 0.156358 -0.176877
0.0381592 0.155695 -0.176127
0.0392031 0.155033 -0.175378
0.0404094 0.155033 -0.175378
0.0414378 0.15437 -0.174628
0.0426389 0.15437 -0.174628
-0.0871438 0.151474 -0.173142
-0.0863319 0.152133 -0.173895
-0.0866154 0.154767 -0.176906
-0.0840741 0.163987 -0.187445
-0.0788006 0.156084 -0.178411
-0.0772515 0.155426 -0.177659
-0.0763572 0.156084 -0.178411
-0.0751354 0.156084 -0.178411
-0.0751612 0.158719 -0.181422
-0.0811203 0.177159 -0.202501
-0.0757257 0.171232 -0.195725
-0.0698078 0.160694 -0.183681
-0.0682691 0.160036 -0.182928
-0.0670164 0.160036 -0.182928
-0.0660344 0.160694 -0.183681
-0.0682279 0.169256 -0.193467
-0.0681299 0.175842 -0.200995
-0.0635034 0.16728 -0.191209
-0.0619492 0.166622 -0.190456
-0.0608847 0.16728 -0.191209
-0.0598099 0.167939 -0.191962
-0.0589542 0.169256 -0.193467
-0.0594233 0.174525 -0.199489
-0.0574 0.172549 -0.197231
-0.0556215 0.171232 -0.195725
-0.05449 0.17189 -0.196478
-0.0533482 0.172549 -0.197231
-0.0517991 0.17189 -0.196478
-0.0502604 0.171232 -0.195725
-0.0492964 0.172549 -0.197231
-0.0479458 0.172549 -0.197231
-0.0467731 0.173207 -0.197984
-0.0454174 0.173207 -0.197984
-0.0440616 0.173207 -0.197984
-0.0428683 0.173866 -0.198737
-0.0418218 0.175183 -0.200242
-0.0404506 0.175183 -0.200242
-0.0389325 0.174525 -0.199489
-0.0377082 0.175183 -0.200242
-0.036337 0.175183 -0.200242
-0.0347029 0.173866 -0.198737
-0.033342 0.173866 -0.198737
-0.0318599 0.173207 -0.197984
-0.0305042 0.173207 -0.197984
-0.0289268 0.17189 -0.196478
-0.027687 0.172549 -0.197231
-0.0269396 0.1765 -0.201748
-0.0254627 0.175842 -0.200995
-0.0239961 0.175183 -0.200242
-0.02271 0.175842 -0.200995
-0.0210939 0.173866 -0.198737
-0.0195835 0.172549 -0.197231
-0.0183721 0.173866 -0.198737
-0.0169468 0.173207 -0.197984
-0.0157096 0.174525 -0.199489
-0.0143435 0.174525 -0.199489
-0.0128796 0.173207 -0.197984
-0.0113047 0.169914 -0.19422
-0.0099361 0.169256 -0.193467
-0.00864479 0.169914 -0.19422
-0.00731482 0.169914 -0.19422
-0.000652096 0.166622 -0.190456
0.000644364 0.164646 -0.188198
0.00193309 0.164646 -0.188198
0.0032476 0.165963 -0.189703
0.00460076 0.167939 -0.191962
0.0109542 0.164646 -0.188198
0.012047 0.162011 -0.185186
0.0134234 0.163329 -0.186692
0.0145832 0.162011 -0.185186
0.0163024 0.166622 -0.190456
0.0217408 0.158719 -0.181422
0.0228878 0.15806 -0.18067
0.024125 0.15806 -0.18067
0.0254678 0.158719 -0.181422
0.0270427 0.160694 -0.183681
0.0296923 0.168597 -0.192714
0.0338781 0.163329 -0.186692
0.0340224 0.15806 -0.18067
0.0348189 0.156084 -0.178411
0.0360406 0.156084 -0.178411
0.0372623 0.156084 -0.178411
0.0383216 0.155426 -0.177659
0.0395382 0.155426 -0.177659
0.0402367 0.15345 -0.1754
0.0414378 0.15345 -0.1754
0.0428219 0.154108 -0.176153
-0.093072 0.150566 -0.173904
-0.0918863 0.150566 -0.173904
-0.0871438 0.150566 -0.173904
-0.0859582 0.150566 -0.173904
-0.0847725 0.150566 -0.173904
-0.0847493 0.164313 -0.189782
-0.0794656 0.156458 -0.180709
-0.0775789 0.155148 -0.179197
-0.076035 0.154494 -0.178441
-0.0751354 0.155148 -0.179197
-0.0748493 0.157112 -0.181465
-0.0742694 0.166932 -0.192806
-0.07038 0.16104 -0.186002
-0.06855 0.159731 -0.184489
-0.0670164 0.159076 -0.183733
-0.0657638 0.159076 -0.183733
-0.0650421 0.160385 -0.185245
-0.0647534 0.16955 -0.195831
-0.0619492 0.165622 -0.191294
-0.0604053 0.164968 -0.190538
-0.0595753 0.166277 -0.19205
-0.0589542 0.168241 -0.194319
-0.0583021 0.170205 -0.196587
-0.0567427 0.16955 -0.195831
-0.0554076 0.16955 -0.195831
-0.0542812 0.170205 -0.196587
-0.052941 0.170205 -0.196587
-0.0514022 0.16955 -0.195831
-0.0502604 0.170205 -0.196587
-0.0492964 0.171514 -0.198099
-0.0479458 0.171514 -0.198099
-0.0467731 0.172169 -0.198855
-0.0448993 0.170205 -0.196587
-0.0438941 0.171514 -0.198099
-0.0427059 0.172169 -0.198855
-0.0415074 0.172823 -0.199611
-0.0398423 0.171514 -0.198099
-0.0386387 0.172169 -0.198855
-0.0374247 0.172823 -0.199611
-0.0360638 0.172823 -0.199611
-0.0345714 0.172169 -0.198855
-0.0325842 0.168896 -0.195075
-0.0317388 0.171514 -0.198099
-0.0302722 0.17086 -0.197343
-0.028816 0.170205 -0.196587
-0.027687 0.171514 -0.198099
-0.0265375 0.172823 -0.199611
-0.0250812 0.172169 -0.198855
-0.0236353 0.171514 -0.198099
-0.0224548 0.172823 -0.199611
-0.021014 0.172169 -0.198855
-0.0196583 0.172169 -0.198855
-0.0183721 0.172823 -0.199611
-0.0169468 0.172169 -0.198855
-0.0155318 0.171514 -0.198099
-0.0142894 0.172823 -0.199611
-0.0128796 0.172169 -0.198855
-0.0113924 0.170205 -0.196587
-0.0099361 0.168241 -0.194319
-0.0086783 0.16955 -0.195831
-0.00737153 0.170205 -0.196587
-0.000652096 0.165622 -0.191294
0.000649519 0.164968 -0.190538
0.00194856 0.164968 -0.190538
0.00326048 0.165622 -0.191294
0.0108666 0.162349 -0.187514
0.012145 0.162349 -0.187514
0.0133693 0.161695 -0.186758
0.0147611 0.163004 -0.18827
0.0163668 0.166277 -0.19205
0.0210939 0.162349 -0.187514
0.0217408 0.157767 -0.182221
0.0229832 0.157767 -0.182221
0.024125 0.157112 -0.181465
0.0256792 0.159076 -0.183733
0.0271535 0.160385 -0.185245
0.0300403 0.16955 -0.195831
0.0331951 0.159076 -0.183733
0.0334554 0.154494 -0.178441
0.0346719 0.154494 -0.178441
0.0355844 0.153184 -0.176928
0.0374195 0.155803 -0.179953
0.0386464 0.155803 -0.179953
0.0395382 0.154494 -0.178441
0.0409274 0.155148 -0.179197
0.0417935 0.153839 -0.177684
0.0433709 0.155148 -0.179197
0.047603 0.165622 -0.191294
-0.0934843 0.15226 -0.177704
-0.0907007 0.149658 -0.174666
-0.0851411 0.150308 -0.175425
-0.0846772 0.15161 -0.176944
-0.085087 0.163973 -0.191373
-0.0797981 0.156164 -0.18226
-0.0779062 0.154863 -0.180741
-0.0757128 0.152911 -0.178463
-0.0741844 0.15226 -0.177704
-0.0742256 0.154863 -0.180741
-0.0797336 0.175034 -0.204283
-0.0751432 0.167877 -0.19593
-0.0709522 0.16137 -0.188336
-0.068831 0.159418 -0.186057
-0.0672922 0.158767 -0.185298
-0.0660344 0.158767 -0.185298
-0.0650421 0.159418 -0.186057
-0.0647534 0.168528 -0.196689
-0.062194 0.165274 -0.192892
-0.060645 0.164623 -0.192133
-0.0598099 0.165925 -0.193651
-0.0587248 0.166575 -0.194411
-0.0576294 0.167226 -0.19517
-0.0567427 0.168528 -0.196689
-0.0551937 0.167877 -0.19593
-0.0534461 0.166575 -0.194411
-0.0527373 0.168528 -0.196689
-0.0516007 0.169178 -0.197449
-0.0498738 0.167877 -0.19593
-0.0491083 0.169829 -0.198208
-0.0479458 0.17048 -0.198967
-0.0462396 0.169178 -0.197449
-0.045072 0.169829 -0.198208
-0.0437266 0.169829 -0.198208
-0.0422187 0.169178 -0.197449
-0.0410357 0.169829 -0.198208
-0.0398423 0.17048 -0.198967
-0.0381979 0.169178 -0.197449
-0.0369994 0.169829 -0.198208
-0.0357906 0.17048 -0.198967
-0.03444 0.17048 -0.198967
-0.0329631 0.169829 -0.198208
-0.0316177 0.169829 -0.198208
-0.0303882 0.17048 -0.198967
-0.028816 0.169178 -0.197449
-0.0275814 0.169829 -0.198208
-0.0261354 0.169178 -0.197449
-0.0247951 0.169178 -0.197449
-0.0237255 0.17113 -0.199727
-0.0224548 0.171781 -0.200486
-0.021014 0.17113 -0.199727
-0.0196583 0.17113 -0.199727
-0.0182329 0.17048 -0.198967
-0.0168823 0.17048 -0.198967
-0.015591 0.17113 -0.199727
-0.0142894 0.171781 -0.200486
-0.0127326 0.169178 -0.197449
-0.0114362 0.169829 -0.198208
-0.0100134 0.168528 -0.196689
-0.0086783 0.168528 -0.196689
-0.00739988 0.169829 -0.198208
-0.00204908 0.172432 -0.201246
-0.000652096 0.164623 -0.192133
0.000649519 0.163973 -0.191373
0.00195629 0.164623 -0.192133
0.00327337 0.165274 -0.192892
0.00958814 0.16137 -0.188336
0.0108227 0.160719 -0.187576
0.012096 0.160719 -0.187576
0.0133693 0.160719 -0.187576
0.0147611 0.162021 -0.189095
0.0208387 0.159418 -0.186057
0.0217408 0.156815 -0.18302
0.0227924 0.155514 -0.181501
0.024125 0.156164 -0.18226
0.0256792 0.158117 -0.184538
0.027486 0.16137 -0.188336
0.0321022 0.152911 -0.178463
0.0331719 0.15226 -0.177704
0.0343781 0.15226 -0.177704
0.0357364 0.152911 -0.178463
0.0374195 0.154863 -0.180741
0.0386464 0.154863 -0.180741
0.0395382 0.153562 -0.179223
0.0409274 0.154212 -0.179982
0.042327 0.154863 -0.180741
0.0441029 0.156815 -0.18302
0.0481675 0.166575 -0.194411
-0.101075 0.163624 -0.192971
-0.0938555 0.153923 -0.18153
-0.0871438 0.148749 -0.175428
-0.0851411 0.149396 -0.176191
-0.0846772 0.15069 -0.177716
-0.0801305 0.155863 -0.183818
-0.0782335 0.15457 -0.182293
-0.0757128 0.151983 -0.179242
-0.0745014 0.151983 -0.179242
-0.0736018 0.15263 -0.180005
-0.0766793 0.161684 -0.190683
-0.0740993 0.167505 -0.197547
-0.068831 0.15845 -0.186869
-0.0678438 0.159097 -0.187632
-0.0660344 0.157804 -0.186106
-0.0647766 0.157804 -0.186106
-0.0647534 0.167505 -0.197547
-0.0624389 0.164918 -0.194496
-0.0608847 0.164271 -0.193734
-0.0600444 0.165565 -0.195259
-0.0589542 0.166211 -0.196022
-0.0574051 0.165565 -0.195259
-0.0560855 0.165565 -0.195259
-0.0549797 0.166211 -0.196022
-0.0532374 0.164918 -0.194496
-0.0523301 0.166211 -0.196022
-0.0510053 0.166211 -0.196022
-0.0498738 0.166858 -0.196785
-0.048732 0.167505 -0.197547
-0.0473968 0.167505 -0.197547
-0.0458839 0.166858 -0.196785
-0.0447266 0.167505 -0.197547
-0.0433915 0.167505 -0.197547
-0.0422187 0.168151 -0.19831
-0.0407212 0.167505 -0.197547
-0.0395382 0.168151 -0.19831
-0.0381979 0.168151 -0.19831
-0.0369994 0.168798 -0.199073
-0.035654 0.168798 -0.199073
-0.0341771 0.168151 -0.19831
-0.0330894 0.169445 -0.199835
-0.0316177 0.168798 -0.199073
-0.0301562 0.168151 -0.19831
-0.0285943 0.166858 -0.196785
-0.0272643 0.166858 -0.196785
-0.0261354 0.168151 -0.19831
-0.0246998 0.167505 -0.197547
-0.0233646 0.167505 -0.197547
-0.0221996 0.168798 -0.199073
-0.0208542 0.168798 -0.199073
-0.019434 0.168151 -0.19831
-0.0180937 0.168151 -0.19831
-0.0168179 0.168798 -0.199073
-0.0155318 0.169445 -0.199835
-0.0140729 0.168151 -0.19831
-0.0126837 0.167505 -0.197547
-0.0113485 0.167505 -0.197547
-0.0100134 0.167505 -0.197547
-0.00861128 0.166211 -0.196022
-0.00725812 0.165565 -0.195259
-0.00614723 0.171385 -0.202124
-0.00197949 0.165565 -0.195259
-0.000654674 0.164271 -0.193734
0.000649519 0.162978 -0.192208
0.00194856 0.162978 -0.192208
0.00329914 0.165565 -0.195259
0.00958814 0.160391 -0.189157
0.0108227 0.159744 -0.188395
0.012145 0.160391 -0.189157
0.0133693 0.159744 -0.188395
0.0150575 0.164271 -0.193734
0.0204135 0.155217 -0.183055
0.0216506 0.155217 -0.183055
0.0228878 0.155217 -0.183055
0.024326 0.15651 -0.184581
0.0256792 0.157157 -0.185344
0.0285943 0.166858 -0.196785
0.0350972 0.172679 -0.203649
0.0319656 0.151336 -0.178479
0.0330301 0.15069 -0.177716
0.0342312 0.15069 -0.177716
0.0355844 0.151336 -0.178479
0.0372623 0.153277 -0.180767
0.0383216 0.15263 -0.180005
0.0397057 0.153277 -0.180767
0.0414455 0.155217 -0.183055
0.0426827 0.155217 -0.183055
0.0461159 0.162978 -0.192208
-0.100675 0.161982 -0.193043
-0.0954329 0.155555 -0.185383
-0.0899043 0.148484 -0.176956
-0.0839503 0.148484 -0.176956
-0.0863422 0.154912 -0.184617
-0.0821255 0.158769 -0.189213
-0.0772515 0.151698 -0.180786
-0.0763572 0.152341 -0.181553
-0.0745014 0.151055 -0.18002
-0.0729781 0.150412 -0.179254
-0.0766793 0.160697 -0.191511
-0.0743854 0.167125 -0.199172
-0.06855 0.15684 -0.186915
-0.0678438 0.158126 -0.188447
-0.0663051 0.157483 -0.187681
-0.0650421 0.157483 -0.187681
-0.0658617 0.162625 -0.193809
-0.0663437 0.167125 -0.199172
-0.0642534 0.165196 -0.196873
-0.062194 0.163268 -0.194575
-0.0611244 0.163911 -0.195341
-0.0600444 0.164554 -0.196107
-0.0584954 0.163911 -0.195341
-0.0574051 0.164554 -0.196107
-0.0560855 0.164554 -0.196107
-0.0547658 0.164554 -0.196107
-0.0534461 0.164554 -0.196107
-0.0521265 0.164554 -0.196107
-0.0508068 0.164554 -0.196107
-0.0492939 0.163911 -0.195341
-0.0485438 0.165839 -0.197639
-0.0472138 0.165839 -0.197639
-0.0455282 0.164554 -0.196107
-0.0445539 0.165839 -0.197639
-0.0432239 0.165839 -0.197639
-0.0414068 0.163911 -0.195341
-0.0404068 0.165196 -0.196873
-0.039234 0.165839 -0.197639
-0.0379041 0.165839 -0.197639
-0.0365741 0.165839 -0.197639
-0.0353807 0.166482 -0.198406
-0.0340456 0.166482 -0.198406
-0.0324579 0.165196 -0.196873
-0.0311331 0.165196 -0.196873
-0.0299243 0.165839 -0.197639
-0.0283726 0.164554 -0.196107
-0.0269473 0.163911 -0.195341
-0.0259344 0.165839 -0.197639
-0.024509 0.165196 -0.196873
-0.0232744 0.165839 -0.197639
-0.0221146 0.167125 -0.199172
-0.0206944 0.166482 -0.198406
-0.0192845 0.165839 -0.197639
-0.0180242 0.166482 -0.198406
-0.016689 0.166482 -0.198406
-0.0152946 0.165839 -0.197639
-0.0139105 0.165196 -0.196873
-0.0126837 0.166482 -0.198406
-0.0112609 0.165196 -0.196873
-0.00989743 0.164554 -0.196107
-0.00857778 0.164554 -0.196107
-0.00728647 0.165196 -0.196873
-0.00596166 0.165196 -0.196873
-0.00467293 0.166482 -0.198406
-0.00333781 0.166482 -0.198406
-0.00197949 0.164554 -0.196107
-0.000657251 0.163911 -0.195341
0.000654674 0.163268 -0.194575
0.00196402 0.163268 -0.194575
0.00342802 0.170982 -0.203768
0.00881232 0.169053 -0.20147
0.00958814 0.159411 -0.189979
0.0108666 0.159411 -0.189979
0.012096 0.158769 -0.189213
0.0135316 0.160697 -0.191511
0.0198954 0.160054 -0.190745
0.0204985 0.154912 -0.184617
0.0218311 0.155555 -0.185383
0.0228878 0.154269 -0.183851
0.024326 0.155555 -0.185383
0.0258906 0.157483 -0.187681
0.0328626 0.160697 -0.191511
0.031829 0.14977 -0.178488
0.0328883 0.149127 -0.177722
0.0340843 0.149127 -0.177722
0.0357364 0.151055 -0.18002
0.0372623 0.152341 -0.181553
0.038484 0.152341 -0.181553
0.0415486 0.159411 -0.189979
0.0426543 0.158769 -0.189213
0.0464174 0.167768 -0.199938
-0.103871 0.166098 -0.200033
-0.0958273 0.155238 -0.186954
-0.091461 0.150127 -0.180799
-0.0847725 0.146933 -0.176952
-0.0843138 0.148211 -0.178491
-0.0838344 0.149488 -0.18003
-0.0775789 0.151405 -0.182338
-0.0763572 0.151405 -0.182338
-0.0751354 0.151405 -0.182338
-0.0736018 0.150766 -0.181568
-0.074839 0.155877 -0.187723
-0.076102 0.169931 -0.204649
-0.0696738 0.158432 -0.190801
-0.0681196 0.157793 -0.190031
-0.0665757 0.157154 -0.189262
-0.0653076 0.157154 -0.189262
-0.0645601 0.158432 -0.190801
-0.0650679 0.162904 -0.196186
-0.0632534 0.161626 -0.194648
-0.0619492 0.161626 -0.194648
-0.0608847 0.162265 -0.195417
-0.0595753 0.162265 -0.195417
-0.058266 0.162265 -0.195417
-0.0569566 0.162265 -0.195417
-0.0556473 0.162265 -0.195417
-0.0543379 0.162265 -0.195417
-0.0534461 0.163543 -0.196956
-0.0521265 0.163543 -0.196956
-0.0504099 0.162265 -0.195417
-0.0491005 0.162265 -0.195417
-0.0479794 0.162904 -0.196186
-0.0466649 0.162904 -0.196186
-0.0453503 0.162904 -0.196186
-0.0442085 0.163543 -0.196956
-0.0427213 0.162904 -0.196186
-0.0412445 0.162265 -0.195417
-0.0402496 0.163543 -0.196956
-0.0389299 0.163543 -0.196956
-0.0376102 0.163543 -0.196956
-0.0364323 0.164182 -0.197725
-0.0349709 0.163543 -0.196956
-0.0336513 0.163543 -0.196956
-0.032079 0.162265 -0.195417
-0.031012 0.163543 -0.196956
-0.0296923 0.163543 -0.196956
-0.0282618 0.162904 -0.196186
-0.0268416 0.162265 -0.195417
-0.0257333 0.163543 -0.196956
-0.0243183 0.162904 -0.196186
-0.0230038 0.162904 -0.196186
-0.0217744 0.163543 -0.196956
-0.0204547 0.163543 -0.196956
-0.0192845 0.16482 -0.198494
-0.017885 0.164182 -0.197725
-0.0164957 0.163543 -0.196956
-0.0151761 0.163543 -0.196956
-0.0139105 0.164182 -0.197725
-0.0125857 0.164182 -0.197725
-0.0112171 0.163543 -0.196956
-0.00985877 0.162904 -0.196186
-0.00857778 0.163543 -0.196956
-0.00731482 0.16482 -0.198494
-0.00596166 0.164182 -0.197725
-0.00463684 0.164182 -0.197725
-0.00332492 0.16482 -0.198494
-0.00197949 0.163543 -0.196956
-0.000657251 0.162904 -0.196186
0.000654674 0.162265 -0.195417
0.00196402 0.162265 -0.195417
0.00830972 0.158432 -0.190801
0.00954948 0.157793 -0.190031
0.0108227 0.157793 -0.190031
0.012145 0.158432 -0.190801
0.0135316 0.15971 -0.192339
0.0197356 0.157793 -0.190031
0.0206686 0.155238 -0.186954
0.0218311 0.154599 -0.186185
0.0230785 0.154599 -0.186185
0.0244266 0.155238 -0.186954
0.0269473 0.162904 -0.196186
0.030365 0.147572 -0.177722
0.0340843 0.148211 -0.178491
0.0360406 0.151405 -0.182338
0.0369478 0.150127 -0.180799
0.0392959 0.154599 -0.186185
0.0425538 0.162265 -0.195417
-0.0993764 0.159992 -0.194713
-0.095353 0.155548 -0.189305
-0.0890975 0.147294 -0.17926
-0.0847725 0.146025 -0.177714
-0.0846772 0.147929 -0.180032
-0.0831178 0.147294 -0.17926
-0.0850999 0.153008 -0.186214
-0.0788882 0.153008 -0.186214
-0.0763572 0.150469 -0.183123
-0.0751354 0.150469 -0.183123
-0.0739137 0.150469 -0.183123
-0.0733054 0.151739 -0.184668
-0.0716404 0.161897 -0.197031
-0.0686712 0.158088 -0.192395
-0.067117 0.157453 -0.191623
-0.0658385 0.157453 -0.191623
-0.0645601 0.157453 -0.191623
-0.0643024 0.159992 -0.194713
-0.0627533 0.159357 -0.193941
-0.0614594 0.159357 -0.193941
-0.0604053 0.159992 -0.194713
-0.0591062 0.159992 -0.194713
-0.0575778 0.159357 -0.193941
-0.0567324 0.160627 -0.195486
-0.0552091 0.159992 -0.194713
-0.0539101 0.159992 -0.194713
-0.0528198 0.160627 -0.195486
-0.051312 0.159992 -0.194713
-0.050013 0.159992 -0.194713
-0.0491005 0.161262 -0.196259
-0.047603 0.160627 -0.195486
-0.0461159 0.159992 -0.194713
-0.0451725 0.161262 -0.196259
-0.0436905 0.160627 -0.195486
-0.0423863 0.160627 -0.195486
-0.0409197 0.159992 -0.194713
-0.0399351 0.161262 -0.196259
-0.0387778 0.161897 -0.197031
-0.0373164 0.161262 -0.196259
-0.0360071 0.161262 -0.196259
-0.0345611 0.160627 -0.195486
-0.0335198 0.161897 -0.197031
-0.0323316 0.162532 -0.197804
-0.0307697 0.161262 -0.196259
-0.0295763 0.161897 -0.197031
-0.028151 0.161262 -0.196259
-0.0268416 0.161262 -0.196259
-0.0254318 0.160627 -0.195486
-0.0241276 0.160627 -0.195486
-0.0229136 0.161262 -0.196259
-0.0217744 0.162532 -0.197804
-0.0203748 0.161897 -0.197031
-0.0189108 0.160627 -0.195486
-0.0178154 0.162532 -0.197804
-0.0164313 0.161897 -0.197031
-0.0151168 0.161897 -0.197031
-0.0138564 0.162532 -0.197804
-0.0124388 0.161262 -0.196259
-0.0111733 0.161897 -0.197031
-0.00989743 0.162532 -0.197804
-0.00857778 0.162532 -0.197804
-0.00722977 0.161897 -0.197031
-0.00591526 0.161897 -0.197031
-0.0046188 0.162532 -0.197804
-0.00331203 0.163167 -0.198577
-0.00197175 0.161897 -0.197031
-0.000659829 0.162532 -0.197804
0.000659829 0.162532 -0.197804
0.00197175 0.161897 -0.197031
0.00830972 0.157453 -0.191623
0.00958814 0.157453 -0.191623
0.0108666 0.157453 -0.191623
0.0121939 0.158088 -0.192395
0.0140729 0.165071 -0.200895
0.0187613 0.159357 -0.193941
0.0194959 0.154913 -0.188532
0.0207537 0.154913 -0.188532
0.0218311 0.153643 -0.186986
0.0231739 0.154278 -0.187759
0.0242255 0.153008 -0.186214
0.0275814 0.165706 -0.201667
0.0293005 0.147294 -0.17926
0.0339374 0.14666 -0.178487
0.0358885 0.149834 -0.18235
0.0372623 0.150469 -0.183123
0.0425435 0.166341 -0.20244
-0.0976882 0.158366 -0.194772
-0.0898656 0.14764 -0.18158
-0.0871438 0.145116 -0.178477
-0.0851411 0.145747 -0.179253
-0.0839503 0.145747 -0.179253
-0.0824013 0.145116 -0.178477
-0.0819219 0.146378 -0.180029
-0.0801976 0.154581 -0.190116
-0.0770015 0.150795 -0.18546
-0.0757695 0.150795 -0.18546
-0.0742256 0.150164 -0.184684
-0.0729987 0.150164 -0.184684
-0.0787078 0.164676 -0.202532
-0.0702357 0.157735 -0.193996
-0.0683954 0.156473 -0.192444
-0.0668463 0.155842 -0.191668
-0.066104 0.157104 -0.19322
-0.0645601 0.156473 -0.192444
-0.0635369 0.157104 -0.19322
-0.0622533 0.157104 -0.19322
-0.0612146 0.157735 -0.193996
-0.0599259 0.157735 -0.193996
-0.0588717 0.158366 -0.194772
-0.057119 0.157104 -0.19322
-0.0560597 0.157735 -0.193996
-0.054771 0.157735 -0.193996
-0.0536961 0.158366 -0.194772
-0.052611 0.158997 -0.195548
-0.0509048 0.157735 -0.193996
-0.049616 0.157735 -0.193996
-0.0485206 0.158366 -0.194772
-0.0468504 0.157104 -0.19322
-0.0457499 0.157735 -0.193996
-0.044639 0.158366 -0.194772
-0.0435178 0.158997 -0.195548
-0.0418837 0.157735 -0.193996
-0.0405949 0.157735 -0.193996
-0.0396207 0.158997 -0.195548
-0.0384737 0.159628 -0.196324
-0.0371695 0.159628 -0.196324
-0.03544 0.157735 -0.193996
-0.0342879 0.158366 -0.194772
-0.0331255 0.158997 -0.195548
-0.032079 0.160259 -0.1971
-0.0307697 0.160259 -0.1971
-0.0294603 0.160259 -0.1971
-0.0280401 0.159628 -0.196324
-0.0264189 0.157735 -0.193996
-0.0252307 0.158366 -0.194772
-0.0240322 0.158997 -0.195548
-0.0228234 0.159628 -0.196324
-0.0216042 0.160259 -0.1971
-0.0202949 0.160259 -0.1971
-0.0188361 0.158997 -0.195548
-0.0176762 0.160259 -0.1971
-0.0163668 0.160259 -0.1971
-0.0149389 0.158997 -0.195548
-0.013694 0.159628 -0.196324
-0.0122919 0.158366 -0.194772
-0.0110418 0.158997 -0.195548
-0.00978145 0.159628 -0.196324
-0.00851076 0.160259 -0.1971
-0.00711636 0.158366 -0.194772
-0.00586887 0.159628 -0.196324
-0.0046188 0.161521 -0.198652
-0.00331203 0.162152 -0.199428
-0.00197949 0.161521 -0.198652
-0.000654674 0.160259 -0.1971
0.000657251 0.16089 -0.197876
0.00197175 0.16089 -0.197876
0.00328626 0.16089 -0.197876
0.00460076 0.16089 -0.197876
0.00607764 0.165307 -0.203308
0.00717306 0.159628 -0.196324
0.00834323 0.157104 -0.19322
0.0096268 0.157104 -0.19322
0.0108666 0.156473 -0.192444
0.012145 0.156473 -0.192444
0.0183876 0.155211 -0.190892
0.0194959 0.15395 -0.18934
0.0206686 0.153319 -0.188564
0.0219213 0.153319 -0.188564
0.0229832 0.152057 -0.187012
0.0261354 0.164045 -0.201756
0.0339374 0.145747 -0.179253
0.0361926 0.150164 -0.184684
0.0383629 0.15395 -0.18934
-0.101969 0.164272 -0.204176
-0.0971624 0.158629 -0.197163
-0.0859582 0.144208 -0.179239
-0.0847725 0.144208 -0.179239
-0.0824013 0.144208 -0.179239
-0.0819219 0.145462 -0.180797
-0.0824657 0.148597 -0.184694
-0.0824889 0.158002 -0.196383
-0.0776459 0.151105 -0.187811
-0.0754525 0.149224 -0.185473
-0.0745375 0.149851 -0.186252
-0.0736122 0.150478 -0.187032
-0.075089 0.156121 -0.194045
-0.0770659 0.163018 -0.202618
-0.0733957 0.158002 -0.196383
-0.0712383 0.156121 -0.194045
-0.0699547 0.156121 -0.194045
-0.0681196 0.154867 -0.192487
-0.0668463 0.154867 -0.192487
-0.0658385 0.155494 -0.193266
-0.0648205 0.156121 -0.194045
-0.0632817 0.155494 -0.193266
-0.0617533 0.154867 -0.192487
-0.0609697 0.156121 -0.194045
-0.0599259 0.156748 -0.194825
-0.0586371 0.156748 -0.194825
-0.057119 0.156121 -0.194045
-0.0558354 0.156121 -0.194045
-0.0545519 0.156121 -0.194045
-0.0536961 0.157375 -0.195604
-0.0521935 0.156748 -0.194825
-0.0509048 0.156748 -0.194825
-0.049616 0.156748 -0.194825
-0.048134 0.156121 -0.194045
-0.0464741 0.154867 -0.192487
-0.0450179 0.15424 -0.191707
-0.0439276 0.154867 -0.192487
-0.0431724 0.156748 -0.194825
-0.0417161 0.156121 -0.194045
-0.0404326 0.156121 -0.194045
-0.039149 0.156121 -0.194045
-0.0377133 0.155494 -0.193266
-0.0364349 0.155494 -0.193266
-0.0352983 0.156121 -0.194045
-0.0340147 0.156121 -0.194045
-0.0328626 0.156748 -0.194825
-0.0315738 0.156748 -0.194825
-0.0305274 0.158002 -0.196383
-0.0292284 0.158002 -0.196383
-0.0277077 0.156748 -0.194825
-0.0263133 0.156121 -0.194045
-0.0251302 0.156748 -0.194825
-0.0238415 0.156748 -0.194825
-0.0222821 0.154867 -0.192487
-0.021264 0.156748 -0.194825
-0.0201351 0.158002 -0.196383
-0.0187613 0.157375 -0.195604
-0.0174674 0.157375 -0.195604
-0.0161735 0.157375 -0.195604
-0.0148797 0.157375 -0.195604
-0.0135858 0.157375 -0.195604
-0.0122919 0.157375 -0.195604
-0.0110418 0.158002 -0.196383
-0.00974279 0.158002 -0.196383
-0.00841024 0.157375 -0.195604
-0.00708801 0.156748 -0.194825
-0.00584567 0.158002 -0.196383
-0.00456468 0.158629 -0.197163
-0.00328626 0.159883 -0.198721
-0.00195629 0.158629 -0.197163
-0.000649519 0.158002 -0.196383
0.000654674 0.159256 -0.197942
0.00197175 0.159883 -0.198721
0.00327337 0.159256 -0.197942
0.00456468 0.158629 -0.197163
0.00591526 0.159883 -0.198721
0.00705965 0.156121 -0.194045
0.00830972 0.155494 -0.193266
0.00954948 0.154867 -0.192487
0.0108666 0.155494 -0.193266
0.012145 0.155494 -0.193266
0.0183128 0.153613 -0.190928
0.0195758 0.153613 -0.190928
0.0206686 0.152359 -0.18937
0.0218311 0.151732 -0.18859
0.0229832 0.151105 -0.187811
0.0261354 0.163018 -0.202618
0.0273726 0.14797 -0.183914
0.034525 0.147343 -0.183135
0.0363447 0.149851 -0.186252
0.039149 0.156121 -0.194045
-0.0971624 0.15763 -0.198001
-0.0894171 0.147038 -0.184696
-0.0859582 0.1433 -0.180001
-0.0815688 0.143923 -0.180783
-0.0824657 0.147661 -0.185479
-0.0818342 0.155761 -0.195653
-0.0786124 0.152023 -0.190957
-0.0760865 0.14953 -0.187827
-0.0748493 0.14953 -0.187827
-0.0736122 0.14953 -0.187827
-0.0729781 0.150776 -0.189392
-0.0738055 0.155138 -0.19487
-0.0713569 0.152646 -0.19174
-0.07038 0.153269 -0.192523
-0.0691119 0.153269 -0.192523
-0.0683954 0.154515 -0.194088
-0.0668463 0.153892 -0.193305
-0.0653076 0.153269 -0.192523
-0.0640395 0.153269 -0.192523
-0.0635369 0.155138 -0.19487
-0.0620033 0.154515 -0.194088
-0.06048 0.153892 -0.193305
-0.0589671 0.153269 -0.192523
-0.0586371 0.155761 -0.195653
-0.0568896 0.154515 -0.194088
-0.0551627 0.153269 -0.192523
-0.0541137 0.153892 -0.193305
-0.0532683 0.155138 -0.19487
-0.0519847 0.155138 -0.19487
-0.0504975 0.154515 -0.194088
-0.049616 0.155761 -0.195653
-0.0483273 0.155761 -0.195653
-0.0466623 0.154515 -0.194088
-0.0450179 0.153269 -0.192523
-0.0442833 0.155138 -0.19487
-0.0429997 0.155138 -0.19487
-0.0412135 0.153269 -0.192523
-0.0399454 0.153269 -0.192523
-0.0388345 0.153892 -0.193305
-0.0377133 0.154515 -0.194088
-0.0364349 0.154515 -0.194088
-0.034873 0.153269 -0.192523
-0.0334683 0.152646 -0.19174
-0.0325997 0.154515 -0.194088
-0.0313213 0.154515 -0.194088
-0.0300428 0.154515 -0.194088
-0.0288804 0.155138 -0.19487
-0.0275968 0.155138 -0.19487
-0.0263133 0.155138 -0.19487
-0.0249292 0.154515 -0.194088
-0.0235554 0.153892 -0.193305
