ply
format ascii 1.0
comment Created by Open3D
element vertex 1759
property double x
property double y
property double z
end_header
-0.133786 2.16733 -0.175871
-0.123495 2.16733 -0.175871
-0.113892 2.1805 -0.17694
-0.103538 2.1805 -0.17694
-0.0937905 2.19469 -0.178091
-0.0833694 2.19469 -0.178091
-0.0729482 2.19469 -0.178091
-0.062527 2.19469 -0.178091
-0.0524186 2.20786 -0.17916
-0.0416847 2.19469 -0.178091
-0.0314512 2.20786 -0.17916
-0.0209674 2.20786 -0.17916
-0.0105511 2.22205 -0.180311
0 2.20786 -0.17916
0.0105511 2.22205 -0.180311
0.0211022 2.22205 -0.180311
0.0318553 2.23623 -0.181462
0.0422043 2.22205 -0.180311
0.0527554 2.22205 -0.180311
0.0633065 2.22205 -0.180311
0.0738575 2.22205 -0.180311
0.0838697 2.20786 -0.17916
0.0943535 2.20786 -0.17916
0.104212 2.19469 -0.178091
0.114633 2.19469 -0.178091
0.125054 2.19469 -0.178091
0.1346 2.1805 -0.17694
0.144953 2.1805 -0.17694
0.154369 2.16733 -0.175871
0.16466 2.16733 -0.175871
0.174952 2.16733 -0.175871
0.18403 2.15315 -0.17472
0.195534 2.16733 -0.175871
0.204478 2.15315 -0.17472
0.214702 2.15315 -0.17472
0.224926 2.15315 -0.17472
0.23515 2.15315 -0.17472
0.243873 2.13997 -0.173651
0.25247 2.1268 -0.172582
0.262569 2.1268 -0.172582
0.282767 2.1268 -0.172582
0.333261 2.1268 -0.172582
0.341233 2.11363 -0.171513
0.35127 2.11363 -0.171513
0.359227 2.10147 -0.170527
0.371342 2.11363 -0.171513
0.381378 2.11363 -0.171513
0.391415 2.11363 -0.171513
0.401451 2.11363 -0.171513
0.414052 2.1268 -0.172582
0.42415 2.1268 -0.172582
0.434249 2.1268 -0.172582
0.444348 2.1268 -0.172582
0.454447 2.1268 -0.172582
0.464546 2.1268 -0.172582
0.474644 2.1268 -0.172582
0.487746 2.13997 -0.173651
0.497907 2.13997 -0.173651
0.511196 2.15315 -0.17472
0.524855 2.16733 -0.175871
0.535146 2.16733 -0.175871
0.545437 2.16733 -0.175871
0.555728 2.16733 -0.175871
0.56602 2.16733 -0.175871
0.576311 2.16733 -0.175871
0.582763 2.15315 -0.17472
0.592987 2.15315 -0.17472
0.603211 2.15315 -0.17472
0.609682 2.13997 -0.173651
0.616028 2.1268 -0.172582
0.626127 2.1268 -0.172582
0.636226 2.1268 -0.172582
0.642321 2.11363 -0.171513
0.652358 2.11363 -0.171513
0.662394 2.11363 -0.171513
0.67243 2.11363 -0.171513
0.682466 2.11363 -0.171513
0.692503 2.11363 -0.171513
0.702539 2.11363 -0.171513
0.712575 2.11363 -0.171513
0.722612 2.11363 -0.171513
0.737214 2.1268 -0.172582
0.742684 2.11363 -0.171513
0.75272 2.11363 -0.171513
0.762757 2.11363 -0.171513
0.772793 2.11363 -0.171513
0.778326 2.10147 -0.170527
0.788304 2.10147 -0.170527
0.798283 2.10147 -0.170527
0.812938 2.11363 -0.171513
0.822974 2.11363 -0.171513
0.833011 2.11363 -0.171513
0.843047 2.11363 -0.171513
0.8584 2.1268 -0.172582
0.873877 2.13997 -0.173651
0.88948 2.15315 -0.17472
0.905632 2.16733 -0.175871
0.933051 2.20786 -0.17916
0.962154 2.25143 -0.182695
0.998676 2.31121 -0.187546
-0.974452 2.35594 -0.20223
-0.956631 2.33974 -0.20084
-0.93283 2.30837 -0.198147
-0.909731 2.27801 -0.195541
-0.88732 2.24866 -0.193022
-0.870712 2.23348 -0.191719
-0.860093 2.23348 -0.191719
-0.849475 2.23348 -0.191719
-0.838856 2.23348 -0.191719
-0.822984 2.21932 -0.190503
-0.817619 2.23348 -0.191719
-0.807001 2.23348 -0.191719
-0.796383 2.23348 -0.191719
-0.78078 2.21932 -0.190503
-0.775146 2.23348 -0.191719
-0.499066 2.23348 -0.191719
-0.491768 2.24866 -0.193022
-0.481077 2.24866 -0.193022
-0.467211 2.23348 -0.191719
-0.453696 2.21932 -0.190503
-0.443145 2.21932 -0.190503
-0.429832 2.20515 -0.189286
-0.419349 2.20515 -0.189286
-0.408865 2.20515 -0.189286
-0.396005 2.19199 -0.188157
-0.385583 2.19199 -0.188157
-0.375162 2.19199 -0.188157
-0.362384 2.17782 -0.186941
-0.35203 2.17782 -0.186941
-0.339612 2.16467 -0.185812
-0.329321 2.16467 -0.185812
-0.319029 2.16467 -0.185812
-0.310614 2.17782 -0.186941
-0.300261 2.17782 -0.186941
-0.289907 2.17782 -0.186941
-0.279553 2.17782 -0.186941
-0.27095 2.19199 -0.188157
-0.260529 2.19199 -0.188157
-0.250108 2.19199 -0.188157
-0.241126 2.20515 -0.189286
-0.232124 2.21932 -0.190503
-0.220158 2.20515 -0.189286
-0.209674 2.20515 -0.189286
-0.199191 2.20515 -0.189286
-0.188707 2.20515 -0.189286
-0.17716 2.19199 -0.188157
-0.166739 2.19199 -0.188157
-0.156318 2.19199 -0.188157
-0.145896 2.19199 -0.188157
-0.1346 2.17782 -0.186941
-0.124246 2.17782 -0.186941
-0.114633 2.19199 -0.188157
-0.104212 2.19199 -0.188157
-0.0937905 2.19199 -0.188157
-0.0833694 2.19199 -0.188157
-0.073386 2.20515 -0.189286
-0.062527 2.19199 -0.188157
-0.0524186 2.20515 -0.189286
-0.0419349 2.20515 -0.189286
-0.0314512 2.20515 -0.189286
-0.0211022 2.21932 -0.190503
-0.0105511 2.21932 -0.190503
0 2.21932 -0.190503
0.0105511 2.21932 -0.190503
0.0211022 2.21932 -0.190503
0.0316532 2.21932 -0.190503
0.0422043 2.21932 -0.190503
0.0527554 2.21932 -0.190503
0.0629023 2.20515 -0.189286
0.073386 2.20515 -0.189286
0.0833694 2.19199 -0.188157
0.0937905 2.19199 -0.188157
0.104212 2.19199 -0.188157
0.114633 2.19199 -0.188157
0.125054 2.19199 -0.188157
0.1346 2.17782 -0.186941
0.144078 2.16467 -0.185812
0.154369 2.16467 -0.185812
0.16466 2.16467 -0.185812
0.173806 2.1505 -0.184596
0.18403 2.1505 -0.184596
0.194254 2.1505 -0.184596
0.204478 2.1505 -0.184596
0.214702 2.1505 -0.184596
0.22355 2.13734 -0.183466
0.23515 2.1505 -0.184596
0.242372 2.12419 -0.182337
0.250907 2.11103 -0.181208
0.260943 2.11103 -0.181208
0.270979 2.11103 -0.181208
0.281016 2.11103 -0.181208
0.292866 2.12419 -0.182337
0.302965 2.12419 -0.182337
0.313063 2.12419 -0.182337
0.323162 2.12419 -0.182337
0.331197 2.11103 -0.181208
0.341233 2.11103 -0.181208
0.349249 2.09889 -0.180165
0.359227 2.09889 -0.180165
0.369206 2.09889 -0.180165
0.381378 2.11103 -0.181208
0.391415 2.11103 -0.181208
0.401451 2.11103 -0.181208
0.414052 2.12419 -0.182337
0.42415 2.12419 -0.182337
0.434249 2.12419 -0.182337
0.444348 2.12419 -0.182337
0.454447 2.12419 -0.182337
0.467423 2.13734 -0.183466
0.474644 2.12419 -0.182337
0.484743 2.12419 -0.182337
0.500972 2.1505 -0.184596
0.511196 2.1505 -0.184596
0.524855 2.16467 -0.185812
0.535146 2.16467 -0.185812
0.545437 2.16467 -0.185812
0.555728 2.16467 -0.185812
0.562315 2.1505 -0.184596
0.572539 2.1505 -0.184596
0.582763 2.1505 -0.184596
0.589359 2.13734 -0.183466
0.599521 2.13734 -0.183466
0.609682 2.13734 -0.183466
0.616028 2.12419 -0.182337
0.622249 2.11103 -0.181208
0.632285 2.11103 -0.181208
0.642321 2.11103 -0.181208
0.652358 2.11103 -0.181208
0.662394 2.11103 -0.181208
0.67243 2.11103 -0.181208
0.682466 2.11103 -0.181208
0.692503 2.11103 -0.181208
0.702539 2.11103 -0.181208
0.712575 2.11103 -0.181208
0.722612 2.11103 -0.181208
0.732648 2.11103 -0.181208
0.742684 2.11103 -0.181208
0.75272 2.11103 -0.181208
0.762757 2.11103 -0.181208
0.772793 2.11103 -0.181208
0.782829 2.11103 -0.181208
0.792865 2.11103 -0.181208
0.802902 2.11103 -0.181208
0.812938 2.11103 -0.181208
0.822974 2.11103 -0.181208
0.828219 2.09889 -0.180165
0.843047 2.11103 -0.181208
0.853083 2.11103 -0.181208
0.868498 2.12419 -0.182337
0.884039 2.13734 -0.183466
0.899704 2.1505 -0.184596
0.921489 2.17782 -0.186941
0.943535 2.20515 -0.189286
0.985542 2.27801 -0.195541
-0.981149 2.36921 -0.214513
-0.956631 2.33686 -0.211584
-0.93283 2.30553 -0.208747
-0.909731 2.27521 -0.206002
-0.88732 2.2459 -0.203348
-0.876629 2.2459 -0.203348
-0.865939 2.2459 -0.203348
-0.849475 2.23074 -0.201975
-0.833535 2.21658 -0.200694
-0.822984 2.21658 -0.200694
-0.817619 2.23074 -0.201975
-0.807001 2.23074 -0.201975
-0.791331 2.21658 -0.200694
-0.78078 2.21658 -0.200694
-0.775146 2.23074 -0.201975
-0.764527 2.23074 -0.201975
-0.759033 2.2459 -0.203348
-0.548656 2.21658 -0.200694
-0.538105 2.21658 -0.200694
-0.527554 2.21658 -0.200694
-0.517003 2.21658 -0.200694
-0.509685 2.23074 -0.201975
-0.499066 2.23074 -0.201975
-0.491768 2.2459 -0.203348
-0.481077 2.2459 -0.203348
-0.467211 2.23074 -0.201975
-0.456593 2.23074 -0.201975
-0.443145 2.21658 -0.200694
-0.432594 2.21658 -0.200694
-0.419349 2.20243 -0.199413
-0.408865 2.20243 -0.199413
-0.398381 2.20243 -0.199413
-0.387898 2.20243 -0.199413
-0.377414 2.20243 -0.199413
-0.364741 2.18929 -0.198223
-0.35432 2.18929 -0.198223
-0.341676 2.17514 -0.196942
-0.331322 2.17514 -0.196942
-0.320968 2.17514 -0.196942
-0.312635 2.18929 -0.198223
-0.302214 2.18929 -0.198223
-0.291793 2.18929 -0.198223
-0.28306 2.20243 -0.199413
-0.272577 2.20243 -0.199413
-0.262093 2.20243 -0.199413
-0.253226 2.21658 -0.200694
-0.242675 2.21658 -0.200694
-0.233606 2.23074 -0.201975
-0.221573 2.21658 -0.200694
-0.211022 2.21658 -0.200694
-0.20047 2.21658 -0.200694
-0.189919 2.21658 -0.200694
-0.178223 2.20243 -0.199413
-0.167739 2.20243 -0.199413
-0.157256 2.20243 -0.199413
-0.146772 2.20243 -0.199413
-0.135475 2.18929 -0.198223
-0.125054 2.18929 -0.198223
-0.115321 2.20243 -0.199413
-0.104212 2.18929 -0.198223
-0.0937905 2.18929 -0.198223
-0.0838697 2.20243 -0.199413
-0.073386 2.20243 -0.199413
-0.0629023 2.20243 -0.199413
-0.0524186 2.20243 -0.199413
-0.0419349 2.20243 -0.199413
-0.0314512 2.20243 -0.199413
-0.0211022 2.21658 -0.200694
-0.0105511 2.21658 -0.200694
0 2.21658 -0.200694
0.0105511 2.21658 -0.200694
0.0211022 2.21658 -0.200694
0.0318553 2.23074 -0.201975
0.0422043 2.21658 -0.200694
0.0527554 2.21658 -0.200694
0.0633065 2.21658 -0.200694
0.0738575 2.21658 -0.200694
0.0838697 2.20243 -0.199413
0.0937905 2.18929 -0.198223
0.104212 2.18929 -0.198223
0.114633 2.18929 -0.198223
0.125054 2.18929 -0.198223
0.1346 2.17514 -0.196942
0.144078 2.162 -0.195752
0.154369 2.162 -0.195752
0.16466 2.162 -0.195752
0.173806 2.14785 -0.194471
0.182905 2.13471 -0.193281
0.193066 2.13471 -0.193281
0.203227 2.13471 -0.193281
0.212075 2.12157 -0.192092
0.222174 2.12157 -0.192092
0.232273 2.12157 -0.192092
0.240871 2.10843 -0.190902
0.250907 2.10843 -0.190902
0.260943 2.10843 -0.190902
0.270979 2.10843 -0.190902
0.281016 2.10843 -0.190902
0.291052 2.10843 -0.190902
0.301088 2.10843 -0.190902
0.311124 2.10843 -0.190902
0.323162 2.12157 -0.192092
0.331197 2.10843 -0.190902
0.341233 2.10843 -0.190902
0.35127 2.10843 -0.190902
0.361306 2.10843 -0.190902
0.371342 2.10843 -0.190902
0.381378 2.10843 -0.190902
0.391415 2.10843 -0.190902
0.401451 2.10843 -0.190902
0.411487 2.10843 -0.190902
0.421523 2.10843 -0.190902
0.434249 2.12157 -0.192092
0.444348 2.12157 -0.192092
0.454447 2.12157 -0.192092
0.467423 2.13471 -0.193281
0.474644 2.12157 -0.192092
0.487746 2.13471 -0.193281
0.504272 2.162 -0.195752
0.514563 2.162 -0.195752
0.524855 2.162 -0.195752
0.535146 2.162 -0.195752
0.545437 2.162 -0.195752
0.555728 2.162 -0.195752
0.56602 2.162 -0.195752
0.572539 2.14785 -0.194471
0.579198 2.13471 -0.193281
0.589359 2.13471 -0.193281
0.599521 2.13471 -0.193281
0.605929 2.12157 -0.192092
0.616028 2.12157 -0.192092
0.626127 2.12157 -0.192092
0.632285 2.10843 -0.190902
0.638626 2.0963 -0.189804
0.648605 2.0963 -0.189804
0.658583 2.0963 -0.189804
0.67243 2.10843 -0.190902
0.682466 2.10843 -0.190902
0.692503 2.10843 -0.190902
0.702539 2.10843 -0.190902
0.712575 2.10843 -0.190902
0.722612 2.10843 -0.190902
0.732648 2.10843 -0.190902
0.742684 2.10843 -0.190902
0.75272 2.10843 -0.190902
0.76751 2.12157 -0.192092
0.772793 2.10843 -0.190902
0.782829 2.10843 -0.190902
0.792865 2.10843 -0.190902
0.802902 2.10843 -0.190902
0.812938 2.10843 -0.190902
0.822974 2.10843 -0.190902
0.828219 2.0963 -0.189804
0.843047 2.10843 -0.190902
0.853083 2.10843 -0.190902
0.863119 2.10843 -0.190902
0.878597 2.12157 -0.192092
0.888696 2.12157 -0.192092
0.909928 2.14785 -0.194471
0.937905 2.18929 -0.198223
0.966277 2.23074 -0.201975
-0.956631 2.33399 -0.222329
-0.938964 2.31783 -0.22079
-0.915793 2.28755 -0.217906
-0.892911 2.25726 -0.215021
-0.882153 2.25726 -0.215021
-0.865939 2.24313 -0.213674
-0.849475 2.22799 -0.212232
-0.844558 2.24313 -0.213674
-0.828238 2.22799 -0.212232
-0.823176 2.24313 -0.213674
-0.812486 2.24313 -0.213674
-0.806847 2.25726 -0.215021
-0.791105 2.24313 -0.213674
-0.780414 2.24313 -0.213674
-0.774573 2.25726 -0.215021
-0.768939 2.27241 -0.216463
-0.716838 2.35014 -0.223868
-0.673845 2.31783 -0.22079
-0.606487 2.27241 -0.216463
-0.591688 2.25726 -0.215021
-0.577293 2.24313 -0.213674
-0.566602 2.24313 -0.213674
-0.552159 2.22799 -0.212232
-0.538105 2.21385 -0.210886
-0.530922 2.22799 -0.212232
-0.520303 2.22799 -0.212232
-0.509685 2.22799 -0.212232
-0.499066 2.22799 -0.212232
-0.491768 2.24313 -0.213674
-0.47783 2.22799 -0.212232
-0.467211 2.22799 -0.212232
-0.453696 2.21385 -0.210886
-0.443145 2.21385 -0.210886
-0.432594 2.21385 -0.210886
-0.419349 2.19972 -0.209539
-0.408865 2.19972 -0.209539
-0.398381 2.19972 -0.209539
-0.385583 2.1866 -0.208289
-0.377414 2.19972 -0.209539
-0.364741 2.1866 -0.208289
-0.35432 2.1866 -0.208289
-0.343899 2.1866 -0.208289
-0.333477 2.1866 -0.208289
-0.324995 2.19972 -0.209539
-0.314512 2.19972 -0.209539
-0.304028 2.19972 -0.209539
-0.29543 2.21385 -0.210886
-0.284879 2.21385 -0.210886
-0.274328 2.21385 -0.210886
-0.263777 2.21385 -0.210886
-0.253226 2.21385 -0.210886
-0.244224 2.22799 -0.212232
-0.233606 2.22799 -0.212232
-0.222987 2.22799 -0.212232
-0.212369 2.22799 -0.212232
-0.20175 2.22799 -0.212232
-0.189919 2.21385 -0.210886
-0.179368 2.21385 -0.210886
-0.167739 2.19972 -0.209539
-0.157256 2.19972 -0.209539
-0.147715 2.21385 -0.210886
-0.136288 2.19972 -0.209539
-0.125805 2.19972 -0.209539
-0.115321 2.19972 -0.209539
-0.104837 2.19972 -0.209539
-0.0943535 2.19972 -0.209539
-0.0838697 2.19972 -0.209539
-0.073386 2.19972 -0.209539
-0.0629023 2.19972 -0.209539
-0.0524186 2.19972 -0.209539
-0.0419349 2.19972 -0.209539
-0.0314512 2.19972 -0.209539
-0.0209674 2.19972 -0.209539
-0.0105511 2.21385 -0.210886
0 2.21385 -0.210886
0.0105511 2.21385 -0.210886
0.0211022 2.21385 -0.210886
0.0316532 2.21385 -0.210886
0.0424737 2.22799 -0.212232
0.0527554 2.21385 -0.210886
0.0633065 2.21385 -0.210886
0.073386 2.19972 -0.209539
0.0838697 2.19972 -0.209539
0.0937905 2.1866 -0.208289
0.104212 2.1866 -0.208289
0.114633 2.1866 -0.208289
0.125054 2.1866 -0.208289
0.133786 2.15934 -0.205693
0.143135 2.14521 -0.204347
0.153359 2.14521 -0.204347
0.163583 2.14521 -0.204347
0.172743 2.13208 -0.203096
0.181779 2.11896 -0.201846
0.191878 2.11896 -0.201846
0.200725 2.10584 -0.200596
0.210762 2.10584 -0.200596
0.220798 2.10584 -0.200596
0.230834 2.10584 -0.200596
0.239485 2.09372 -0.199442
0.249463 2.09372 -0.199442
0.259442 2.09372 -0.199442
0.26942 2.09372 -0.199442
0.281016 2.10584 -0.200596
0.291052 2.10584 -0.200596
0.301088 2.10584 -0.200596
0.313063 2.11896 -0.201846
0.323162 2.11896 -0.201846
0.335325 2.13208 -0.203096
0.34336 2.11896 -0.201846
0.353459 2.11896 -0.201846
0.363557 2.11896 -0.201846
0.373656 2.11896 -0.201846
0.386132 2.13208 -0.203096
0.396293 2.13208 -0.203096
0.408956 2.14521 -0.204347
0.416616 2.13208 -0.203096
0.429404 2.14521 -0.204347
0.439628 2.14521 -0.204347
0.449852 2.14521 -0.204347
0.463107 2.15934 -0.205693
0.4703 2.14521 -0.204347
0.480524 2.14521 -0.204347
0.490748 2.14521 -0.204347
0.504272 2.15934 -0.205693
0.517691 2.17246 -0.206943
0.528045 2.17246 -0.206943
0.535146 2.15934 -0.205693
0.545437 2.15934 -0.205693
0.555728 2.15934 -0.205693
0.56602 2.15934 -0.205693
0.576311 2.15934 -0.205693
0.582763 2.14521 -0.204347
0.589359 2.13208 -0.203096
0.599521 2.13208 -0.203096
0.605929 2.11896 -0.201846
0.616028 2.11896 -0.201846
0.626127 2.11896 -0.201846
0.632285 2.10584 -0.200596
0.642321 2.10584 -0.200596
0.652358 2.10584 -0.200596
0.662394 2.10584 -0.200596
0.67243 2.10584 -0.200596
0.682466 2.10584 -0.200596
0.692503 2.10584 -0.200596
0.702539 2.10584 -0.200596
0.712575 2.10584 -0.200596
0.722612 2.10584 -0.200596
0.737214 2.11896 -0.201846
0.747313 2.11896 -0.201846
0.757411 2.11896 -0.201846
0.76751 2.11896 -0.201846
0.777609 2.11896 -0.201846
0.787708 2.11896 -0.201846
0.797807 2.11896 -0.201846
0.802902 2.10584 -0.200596
0.812938 2.10584 -0.200596
0.822974 2.10584 -0.200596
0.833011 2.10584 -0.200596
0.843047 2.10584 -0.200596
0.853083 2.10584 -0.200596
0.863119 2.10584 -0.200596
0.873156 2.10584 -0.200596
0.888696 2.11896 -0.201846
0.898795 2.11896 -0.201846
0.914523 2.13208 -0.203096
0.948327 2.1866 -0.208289
0.989732 2.25726 -0.215021
1.01391 2.28755 -0.217906
-0.969872 2.36337 -0.2363
-0.952051 2.34724 -0.234687
-0.927917 2.31497 -0.231461
-0.910881 2.29985 -0.229949
-0.888071 2.2696 -0.226924
-0.87724 2.2696 -0.226924
-0.860637 2.25448 -0.225412
-0.844558 2.24036 -0.224001
-0.833867 2.24036 -0.224001
-0.828363 2.25448 -0.225412
-0.82309 2.2696 -0.226924
-0.817672 2.28473 -0.228436
-0.81211 2.29985 -0.229949
-0.795868 2.28473 -0.228436
-0.784965 2.28473 -0.228436
-0.779187 2.29985 -0.229949
-0.768213 2.29985 -0.229949
-0.762218 2.31497 -0.231461
-0.673845 2.31497 -0.231461
-0.606487 2.2696 -0.226924
-0.591688 2.25448 -0.225412
-0.577293 2.24036 -0.224001
-0.562777 2.22524 -0.222489
-0.548656 2.21112 -0.221077
-0.538105 2.21112 -0.221077
-0.530922 2.22524 -0.222489
-0.520303 2.22524 -0.222489
-0.509685 2.22524 -0.222489
-0.499066 2.22524 -0.222489
-0.488448 2.22524 -0.222489
-0.47783 2.22524 -0.222489
-0.467211 2.22524 -0.222489
-0.453696 2.21112 -0.221077
-0.440316 2.19701 -0.219666
-0.429832 2.19701 -0.219666
-0.419349 2.19701 -0.219666
-0.411492 2.21112 -0.221077
-0.400941 2.21112 -0.221077
-0.387898 2.19701 -0.219666
-0.379839 2.21112 -0.221077
-0.364741 2.1839 -0.218355
-0.35432 2.1839 -0.218355
-0.343899 2.1839 -0.218355
-0.333477 2.1839 -0.218355
-0.324995 2.19701 -0.219666
-0.314512 2.19701 -0.219666
-0.304028 2.19701 -0.219666
-0.29543 2.21112 -0.221077
-0.284879 2.21112 -0.221077
-0.274328 2.21112 -0.221077
-0.263777 2.21112 -0.221077
-0.253226 2.21112 -0.221077
-0.242675 2.21112 -0.221077
-0.233606 2.22524 -0.222489
-0.222987 2.22524 -0.222489
-0.212369 2.22524 -0.222489
-0.20175 2.22524 -0.222489
-0.189919 2.21112 -0.221077
-0.179368 2.21112 -0.221077
-0.168817 2.21112 -0.221077
-0.158266 2.21112 -0.221077
-0.147715 2.21112 -0.221077
-0.137164 2.21112 -0.221077
-0.125805 2.19701 -0.219666
-0.115321 2.19701 -0.219666
-0.104837 2.19701 -0.219666
-0.0949597 2.21112 -0.221077
-0.0844086 2.21112 -0.221077
-0.0738575 2.21112 -0.221077
-0.0633065 2.21112 -0.221077
-0.0524186 2.19701 -0.219666
-0.0419349 2.19701 -0.219666
-0.0316532 2.21112 -0.221077
-0.0211022 2.21112 -0.221077
-0.0105511 2.21112 -0.221077
0 2.19701 -0.219666
0.0105511 2.21112 -0.221077
0.0211022 2.21112 -0.221077
0.0316532 2.21112 -0.221077
0.0424737 2.22524 -0.222489
0.0527554 2.21112 -0.221077
0.0629023 2.19701 -0.219666
0.073386 2.19701 -0.219666
0.0833694 2.1839 -0.218355
0.0937905 2.1839 -0.218355
0.104212 2.1839 -0.218355
0.114633 2.1839 -0.218355
0.124246 2.16978 -0.216944
0.132911 2.14256 -0.214222
0.143135 2.14256 -0.214222
0.15242 2.12945 -0.212912
0.162582 2.12945 -0.212912
0.17168 2.11635 -0.211601
0.180653 2.10324 -0.210291
0.190689 2.10324 -0.210291
0.200725 2.10324 -0.210291
0.210762 2.10324 -0.210291
0.220798 2.10324 -0.210291
0.230834 2.10324 -0.210291
0.239485 2.09114 -0.209081
0.249463 2.09114 -0.209081
0.259442 2.09114 -0.209081
0.26942 2.09114 -0.209081
0.281016 2.10324 -0.210291
0.291052 2.10324 -0.210291
0.302965 2.11635 -0.211601
0.313063 2.11635 -0.211601
0.325164 2.12945 -0.212912
0.333261 2.11635 -0.211601
0.34336 2.11635 -0.211601
0.353459 2.11635 -0.211601
0.363557 2.11635 -0.211601
0.37597 2.12945 -0.212912
0.386132 2.12945 -0.212912
0.396293 2.12945 -0.212912
0.408956 2.14256 -0.214222
0.41918 2.14256 -0.214222
0.429404 2.14256 -0.214222
0.439628 2.14256 -0.214222
0.449852 2.14256 -0.214222
0.463107 2.15668 -0.215633
0.473398 2.15668 -0.215633
0.48369 2.15668 -0.215633
0.493981 2.15668 -0.215633
0.507337 2.16978 -0.216944
0.517691 2.16978 -0.216944
0.528045 2.16978 -0.216944
0.535146 2.15668 -0.215633
0.548752 2.16978 -0.216944
0.559106 2.16978 -0.216944
0.56602 2.15668 -0.215633
0.576311 2.15668 -0.215633
0.586602 2.15668 -0.215633
0.592987 2.14256 -0.214222
0.599521 2.12945 -0.212912
0.609682 2.12945 -0.212912
0.616028 2.11635 -0.211601
0.622249 2.10324 -0.210291
0.632285 2.10324 -0.210291
0.642321 2.10324 -0.210291
0.648605 2.09114 -0.209081
0.658583 2.09114 -0.209081
0.67243 2.10324 -0.210291
0.682466 2.10324 -0.210291
0.692503 2.10324 -0.210291
0.702539 2.10324 -0.210291
0.717016 2.11635 -0.211601
0.727115 2.11635 -0.211601
0.737214 2.11635 -0.211601
0.747313 2.11635 -0.211601
0.757411 2.11635 -0.211601
0.772264 2.12945 -0.212912
0.782425 2.12945 -0.212912
0.787708 2.11635 -0.211601
0.797807 2.11635 -0.211601
0.807905 2.11635 -0.211601
0.818004 2.11635 -0.211601
0.828103 2.11635 -0.211601
0.833011 2.10324 -0.210291
0.843047 2.10324 -0.210291
0.853083 2.10324 -0.210291
0.868498 2.11635 -0.211601
0.878597 2.11635 -0.211601
0.888696 2.11635 -0.211601
0.915923 2.15668 -0.215633
0.926214 2.15668 -0.215633
0.942197 2.16978 -0.216944
0.983535 2.24036 -0.224001
-0.976492 2.37656 -0.24888
-0.958594 2.36045 -0.247193
-0.94085 2.34434 -0.245506
-0.916871 2.31212 -0.242131
-0.899906 2.29701 -0.240549
-0.87724 2.2668 -0.237385
-0.860637 2.25169 -0.235803
-0.849879 2.25169 -0.235803
-0.839121 2.25169 -0.235803
-0.828363 2.25169 -0.235803
-0.828575 2.2819 -0.238967
-0.823085 2.29701 -0.240549
-0.817451 2.31212 -0.242131
-0.806404 2.31212 -0.242131
-0.795358 2.31212 -0.242131
-0.779187 2.29701 -0.240549
-0.773264 2.31212 -0.242131
-0.762218 2.31212 -0.242131
-0.756406 2.32823 -0.243818
-0.728039 2.34434 -0.245506
-0.716838 2.34434 -0.245506
-0.700788 2.32823 -0.243818
-0.689664 2.32823 -0.243818
-0.673845 2.31212 -0.242131
-0.658468 2.29701 -0.240549
-0.647493 2.29701 -0.240549
-0.632333 2.2819 -0.238967
-0.617317 2.2668 -0.237385
-0.606487 2.2668 -0.237385
-0.591688 2.25169 -0.235803
-0.577293 2.2376 -0.234327
-0.562777 2.22249 -0.232745
-0.548656 2.20839 -0.231269
-0.538105 2.20839 -0.231269
-0.530922 2.22249 -0.232745
-0.520303 2.22249 -0.232745
-0.509685 2.22249 -0.232745
-0.499066 2.22249 -0.232745
-0.488448 2.22249 -0.232745
-0.47783 2.22249 -0.232745
-0.467211 2.22249 -0.232745
-0.453696 2.20839 -0.231269
-0.443145 2.20839 -0.231269
-0.429832 2.19429 -0.229792
-0.422043 2.20839 -0.231269
-0.411492 2.20839 -0.231269
-0.400941 2.20839 -0.231269
-0.387898 2.19429 -0.229792
-0.379839 2.20839 -0.231269
-0.36693 2.19429 -0.229792
-0.356446 2.19429 -0.229792
-0.343899 2.1812 -0.228421
-0.333477 2.1812 -0.228421
-0.324995 2.19429 -0.229792
-0.314512 2.19429 -0.229792
-0.304028 2.19429 -0.229792
-0.29543 2.20839 -0.231269
-0.284879 2.20839 -0.231269
-0.274328 2.20839 -0.231269
-0.263777 2.20839 -0.231269
-0.253226 2.20839 -0.231269
-0.242675 2.20839 -0.231269
-0.233606 2.22249 -0.232745
-0.221573 2.20839 -0.231269
-0.211022 2.20839 -0.231269
-0.20047 2.20839 -0.231269
-0.189919 2.20839 -0.231269
-0.178223 2.19429 -0.229792
-0.167739 2.19429 -0.229792
-0.157256 2.19429 -0.229792
-0.146772 2.19429 -0.229792
-0.136288 2.19429 -0.229792
-0.125054 2.1812 -0.228421
-0.114633 2.1812 -0.228421
-0.104212 2.1812 -0.228421
-0.0937905 2.1812 -0.228421
-0.0833694 2.1812 -0.228421
-0.0729482 2.1812 -0.228421
-0.062527 2.1812 -0.228421
-0.0521059 2.1812 -0.228421
-0.0416847 2.1812 -0.228421
-0.0312635 2.1812 -0.228421
-0.0208423 2.1812 -0.228421
-0.0104837 2.19429 -0.229792
0 2.19429 -0.229792
0.0104212 2.1812 -0.228421
0.0209674 2.19429 -0.229792
0.0316532 2.20839 -0.231269
0.0419349 2.19429 -0.229792
0.0524186 2.19429 -0.229792
0.062527 2.1812 -0.228421
0.0729482 2.1812 -0.228421
0.0828305 2.1671 -0.226945
0.0931843 2.1671 -0.226945
0.103538 2.1671 -0.226945
0.113204 2.15401 -0.225574
0.123495 2.15401 -0.225574
0.132911 2.13992 -0.224098
0.142259 2.12682 -0.222727
0.15242 2.12682 -0.222727
0.161581 2.11373 -0.221356
0.17168 2.11373 -0.221356
0.180653 2.10064 -0.219985
0.190689 2.10064 -0.219985
0.200725 2.10064 -0.219985
0.210762 2.10064 -0.219985
0.219528 2.08856 -0.218719
0.229506 2.08856 -0.218719
0.239485 2.08856 -0.218719
0.249463 2.08856 -0.218719
0.259442 2.08856 -0.218719
0.270979 2.10064 -0.219985
0.282767 2.11373 -0.221356
0.292866 2.11373 -0.221356
0.304841 2.12682 -0.222727
0.315002 2.12682 -0.222727
0.325164 2.12682 -0.222727
0.335325 2.12682 -0.222727
0.345486 2.12682 -0.222727
0.355648 2.12682 -0.222727
0.365809 2.12682 -0.222727
0.37597 2.12682 -0.222727
0.388509 2.13992 -0.224098
0.396293 2.12682 -0.222727
0.406455 2.12682 -0.222727
0.416616 2.12682 -0.222727
0.426777 2.12682 -0.222727
0.436939 2.12682 -0.222727
0.4471 2.12682 -0.222727
0.460076 2.13992 -0.224098
0.4703 2.13992 -0.224098
0.480524 2.13992 -0.224098
0.490748 2.13992 -0.224098
0.504272 2.15401 -0.225574
0.514563 2.15401 -0.225574
0.521419 2.13992 -0.224098
0.531643 2.13992 -0.224098
0.545437 2.15401 -0.225574
0.552091 2.13992 -0.224098
0.562315 2.13992 -0.224098
0.572539 2.13992 -0.224098
0.579198 2.12682 -0.222727
0.589359 2.12682 -0.222727
0.59583 2.11373 -0.221356
0.602176 2.10064 -0.219985
0.612213 2.10064 -0.219985
0.622249 2.10064 -0.219985
0.628648 2.08856 -0.218719
0.638626 2.08856 -0.218719
0.648605 2.08856 -0.218719
0.658583 2.08856 -0.218719
0.668562 2.08856 -0.218719
0.67854 2.08856 -0.218719
0.688519 2.08856 -0.218719
0.702539 2.10064 -0.219985
0.708476 2.08856 -0.218719
0.722612 2.10064 -0.219985
0.737214 2.11373 -0.221356
0.747313 2.11373 -0.221356
0.757411 2.11373 -0.221356
0.772264 2.12682 -0.222727
0.782425 2.12682 -0.222727
0.792586 2.12682 -0.222727
0.802748 2.12682 -0.222727
0.812909 2.12682 -0.222727
0.823071 2.12682 -0.222727
0.828103 2.11373 -0.221356
0.838202 2.11373 -0.221356
0.848301 2.11373 -0.221356
0.8584 2.11373 -0.221356
0.868498 2.11373 -0.221356
0.878597 2.11373 -0.221356
0.888696 2.11373 -0.221356
0.915923 2.15401 -0.225574
0.937905 2.1812 -0.228421
0.972845 2.2376 -0.234327
1.01629 2.31212 -0.242131
-0.953783 2.37363 -0.259848
-0.936039 2.35753 -0.258086
-0.918449 2.34144 -0.256325
-0.894777 2.30926 -0.252801
-0.872184 2.27908 -0.249498
-0.85558 2.264 -0.247846
-0.84475 2.264 -0.247846
-0.839477 2.27908 -0.249498
-0.834059 2.29417 -0.25115
-0.828498 2.30926 -0.252801
-0.823148 2.32535 -0.254563
-0.806404 2.30926 -0.252801
-0.795358 2.30926 -0.252801
-0.784311 2.30926 -0.252801
-0.773264 2.30926 -0.252801
-0.767529 2.32535 -0.254563
-0.756406 2.32535 -0.254563
-0.745282 2.32535 -0.254563
-0.739239 2.34144 -0.256325
-0.728039 2.34144 -0.256325
-0.711911 2.32535 -0.254563
-0.700788 2.32535 -0.254563
-0.689664 2.32535 -0.254563
-0.673845 2.30926 -0.252801
-0.658468 2.29417 -0.25115
-0.647493 2.29417 -0.25115
-0.632333 2.27908 -0.249498
-0.621431 2.27908 -0.249498
-0.606487 2.264 -0.247846
-0.595657 2.264 -0.247846
-0.577293 2.23483 -0.244653
-0.562777 2.21974 -0.243002
-0.552159 2.21974 -0.243002
-0.538105 2.20566 -0.24146
-0.530922 2.21974 -0.243002
-0.520303 2.21974 -0.243002
-0.509685 2.21974 -0.243002
-0.499066 2.21974 -0.243002
-0.488448 2.21974 -0.243002
-0.47783 2.21974 -0.243002
-0.464247 2.20566 -0.24146
-0.453696 2.20566 -0.24146
-0.443145 2.20566 -0.24146
-0.432594 2.20566 -0.24146
-0.422043 2.20566 -0.24146
-0.411492 2.20566 -0.24146
-0.400941 2.20566 -0.24146
-0.387898 2.19158 -0.239919
-0.377414 2.19158 -0.239919
-0.36693 2.19158 -0.239919
-0.356446 2.19158 -0.239919
-0.345963 2.19158 -0.239919
-0.335479 2.19158 -0.239919
-0.327083 2.20566 -0.24146
-0.316532 2.20566 -0.24146
-0.305981 2.20566 -0.24146
-0.297316 2.21974 -0.243002
-0.284879 2.20566 -0.24146
-0.276079 2.21974 -0.243002
-0.265461 2.21974 -0.243002
-0.254842 2.21974 -0.243002
-0.244224 2.21974 -0.243002
-0.233606 2.21974 -0.243002
-0.222987 2.21974 -0.243002
-0.211022 2.20566 -0.24146
-0.20047 2.20566 -0.24146
-0.188707 2.19158 -0.239919
-0.178223 2.19158 -0.239919
-0.167739 2.19158 -0.239919
-0.157256 2.19158 -0.239919
-0.145896 2.17851 -0.238487
-0.135475 2.17851 -0.238487
-0.125054 2.17851 -0.238487
-0.113892 2.16442 -0.236946
-0.103538 2.16442 -0.236946
-0.0931843 2.16442 -0.236946
-0.0828305 2.16442 -0.236946
-0.0724767 2.16442 -0.236946
-0.0621229 2.16442 -0.236946
-0.0517691 2.16442 -0.236946
-0.0414153 2.16442 -0.236946
-0.0312635 2.17851 -0.238487
-0.0208423 2.17851 -0.238487
-0.0104212 2.17851 -0.238487
0 2.17851 -0.238487
0.0103538 2.16442 -0.236946
0.0208423 2.17851 -0.238487
0.0314512 2.19158 -0.239919
0.0419349 2.19158 -0.239919
0.0521059 2.17851 -0.238487
0.062527 2.17851 -0.238487
0.0729482 2.17851 -0.238487
0.0828305 2.16442 -0.236946
0.0931843 2.16442 -0.236946
0.102913 2.15135 -0.235515
0.113892 2.16442 -0.236946
0.123495 2.15135 -0.235515
0.132911 2.13727 -0.233973
0.142259 2.12419 -0.232542
0.15242 2.12419 -0.232542
0.162582 2.12419 -0.232542
0.17168 2.11112 -0.23111
0.180653 2.09804 -0.229679
0.191878 2.11112 -0.23111
0.200725 2.09804 -0.229679
0.210762 2.09804 -0.229679
0.220798 2.09804 -0.229679
0.230834 2.09804 -0.229679
0.240871 2.09804 -0.229679
0.250907 2.09804 -0.229679
0.262569 2.11112 -0.23111
0.272668 2.11112 -0.23111
0.284518 2.12419 -0.232542
0.29468 2.12419 -0.232542
0.306717 2.13727 -0.233973
0.319029 2.15135 -0.235515
0.329321 2.15135 -0.235515
0.339612 2.15135 -0.235515
0.347613 2.13727 -0.233973
0.355648 2.12419 -0.232542
0.368061 2.13727 -0.233973
0.37597 2.12419 -0.232542
0.386132 2.12419 -0.232542
0.396293 2.12419 -0.232542
0.406455 2.12419 -0.232542
0.416616 2.12419 -0.232542
0.42415 2.11112 -0.23111
0.436939 2.12419 -0.232542
0.444348 2.11112 -0.23111
0.457261 2.12419 -0.232542
0.464546 2.11112 -0.23111
0.474644 2.11112 -0.23111
0.484743 2.11112 -0.23111
0.497907 2.12419 -0.232542
0.508068 2.12419 -0.232542
0.51823 2.12419 -0.232542
0.528391 2.12419 -0.232542
0.541867 2.13727 -0.233973
0.552091 2.13727 -0.233973
0.562315 2.13727 -0.233973
0.576311 2.15135 -0.235515
0.582763 2.13727 -0.233973
0.592987 2.13727 -0.233973
0.599521 2.12419 -0.232542
0.605929 2.11112 -0.23111
0.616028 2.11112 -0.23111
0.626127 2.11112 -0.23111
0.632285 2.09804 -0.229679
0.642321 2.09804 -0.229679
0.652358 2.09804 -0.229679
0.658583 2.08597 -0.228358
0.668562 2.08597 -0.228358
0.67854 2.08597 -0.228358
0.692503 2.09804 -0.229679
0.698498 2.08597 -0.228358
0.708476 2.08597 -0.228358
0.722612 2.09804 -0.229679
0.737214 2.11112 -0.23111
0.747313 2.11112 -0.23111
0.762102 2.12419 -0.232542
0.772264 2.12419 -0.232542
0.782425 2.12419 -0.232542
0.797465 2.13727 -0.233973
0.807689 2.13727 -0.233973
0.817913 2.13727 -0.233973
0.828137 2.13727 -0.233973
0.838361 2.13727 -0.233973
0.848585 2.13727 -0.233973
0.853555 2.12419 -0.232542
0.863716 2.12419 -0.232542
0.873877 2.12419 -0.232542
0.884039 2.12419 -0.232542
0.899704 2.13727 -0.233973
0.927484 2.17851 -0.238487
0.931843 2.16442 -0.236946
0.972845 2.23483 -0.244653
1.02337 2.32535 -0.254563
-0.978633 2.40384 -0.274602
-0.907248 2.33854 -0.267143
-0.883731 2.3064 -0.263471
-0.866983 2.29133 -0.26175
-0.850379 2.27626 -0.260029
-0.845034 2.29133 -0.26175
-0.834059 2.29133 -0.26175
-0.834271 2.32247 -0.265307
-0.828844 2.33854 -0.267143
-0.812024 2.32247 -0.265307
-0.8009 2.32247 -0.265307
-0.789777 2.32247 -0.265307
-0.778653 2.32247 -0.265307
-0.767529 2.32247 -0.265307
-0.756406 2.32247 -0.265307
-0.75044 2.33854 -0.267143
-0.739239 2.33854 -0.267143
-0.728039 2.33854 -0.267143
-0.716838 2.33854 -0.267143
-0.705638 2.33854 -0.267143
-0.689664 2.32247 -0.265307
-0.678541 2.32247 -0.265307
-0.662798 2.3064 -0.263471
-0.647493 2.29133 -0.26175
-0.632333 2.27626 -0.260029
-0.621431 2.27626 -0.260029
-0.606487 2.26119 -0.258308
-0.595657 2.26119 -0.258308
-0.577293 2.23206 -0.25498
-0.562777 2.21699 -0.253258
-0.552159 2.21699 -0.253258
-0.54154 2.21699 -0.253258
-0.530922 2.21699 -0.253258
-0.520303 2.21699 -0.253258
-0.509685 2.21699 -0.253258
-0.495901 2.20293 -0.251652
-0.488448 2.21699 -0.253258
-0.47783 2.21699 -0.253258
-0.464247 2.20293 -0.251652
-0.453696 2.20293 -0.251652
-0.440316 2.18887 -0.250045
-0.432594 2.20293 -0.251652
-0.422043 2.20293 -0.251652
-0.411492 2.20293 -0.251652
-0.398381 2.18887 -0.250045
-0.387898 2.18887 -0.250045
-0.379839 2.20293 -0.251652
-0.369288 2.20293 -0.251652
-0.358737 2.20293 -0.251652
-0.348186 2.20293 -0.251652
-0.337634 2.20293 -0.251652
-0.329171 2.21699 -0.253258
-0.318553 2.21699 -0.253258
-0.307935 2.21699 -0.253258
-0.297316 2.21699 -0.253258
-0.286698 2.21699 -0.253258
-0.276079 2.21699 -0.253258
-0.265461 2.21699 -0.253258
-0.254842 2.21699 -0.253258
-0.244224 2.21699 -0.253258
-0.233606 2.21699 -0.253258
-0.221573 2.20293 -0.251652
-0.211022 2.20293 -0.251652
-0.199191 2.18887 -0.250045
-0.187581 2.17581 -0.248554
-0.17716 2.17581 -0.248554
-0.166739 2.17581 -0.248554
-0.156318 2.17581 -0.248554
-0.145896 2.17581 -0.248554
-0.135475 2.17581 -0.248554
-0.125054 2.17581 -0.248554
-0.113892 2.16175 -0.246947
-0.103538 2.16175 -0.246947
-0.0931843 2.16175 -0.246947
-0.0828305 2.16175 -0.246947
-0.0729482 2.17581 -0.248554
-0.0621229 2.16175 -0.246947
-0.0517691 2.16175 -0.246947
-0.0416847 2.17581 -0.248554
-0.0312635 2.17581 -0.248554
-0.0208423 2.17581 -0.248554
-0.0103538 2.16175 -0.246947
0 2.16175 -0.246947
0.0103538 2.16175 -0.246947
0.0207076 2.16175 -0.246947
0.0312635 2.17581 -0.248554
0.0416847 2.17581 -0.248554
0.0517691 2.16175 -0.246947
0.0621229 2.16175 -0.246947
0.0724767 2.16175 -0.246947
0.0823301 2.14869 -0.245455
0.0926214 2.14869 -0.245455
0.102913 2.14869 -0.245455
0.113204 2.14869 -0.245455
0.122687 2.13462 -0.243849
0.132098 2.12156 -0.242357
0.141383 2.10851 -0.240865
0.151482 2.10851 -0.240865
0.161581 2.10851 -0.240865
0.170617 2.09545 -0.239373
0.180653 2.09545 -0.239373
0.191878 2.10851 -0.240865
0.200725 2.09545 -0.239373
0.210762 2.09545 -0.239373
0.222174 2.10851 -0.240865
0.232273 2.10851 -0.240865
0.243873 2.12156 -0.242357
0.254034 2.12156 -0.242357
0.264195 2.12156 -0.242357
0.276046 2.13462 -0.243849
0.28627 2.13462 -0.243849
0.296493 2.13462 -0.243849
0.308738 2.14869 -0.245455
0.319029 2.14869 -0.245455
0.331322 2.16175 -0.246947
0.339612 2.14869 -0.245455
0.349903 2.14869 -0.245455
0.360194 2.14869 -0.245455
0.370486 2.14869 -0.245455
0.378285 2.13462 -0.243849
0.386132 2.12156 -0.242357
0.396293 2.12156 -0.242357
0.406455 2.12156 -0.242357
0.416616 2.12156 -0.242357
0.426777 2.12156 -0.242357
0.436939 2.12156 -0.242357
0.4471 2.12156 -0.242357
0.457261 2.12156 -0.242357
0.467423 2.12156 -0.242357
0.477584 2.12156 -0.242357
0.487746 2.12156 -0.242357
0.497907 2.12156 -0.242357
0.508068 2.12156 -0.242357
0.51823 2.12156 -0.242357
0.528391 2.12156 -0.242357
0.541867 2.13462 -0.243849
0.555728 2.14869 -0.245455
0.56602 2.14869 -0.245455
0.576311 2.14869 -0.245455
0.586602 2.14869 -0.245455
0.596894 2.14869 -0.245455
0.603211 2.13462 -0.243849
0.613435 2.13462 -0.243849
0.619843 2.12156 -0.242357
0.626127 2.10851 -0.240865
0.636226 2.10851 -0.240865
0.646324 2.10851 -0.240865
0.656423 2.10851 -0.240865
0.662394 2.09545 -0.239373
0.67243 2.09545 -0.239373
0.67854 2.08339 -0.237996
0.692503 2.09545 -0.239373
0.702539 2.09545 -0.239373
0.712575 2.09545 -0.239373
0.722612 2.09545 -0.239373
0.732648 2.09545 -0.239373
0.742684 2.09545 -0.239373
0.757411 2.10851 -0.240865
0.76751 2.10851 -0.240865
0.782425 2.12156 -0.242357
0.792586 2.12156 -0.242357
0.807689 2.13462 -0.243849
0.817913 2.13462 -0.243849
0.833593 2.14869 -0.245455
0.843884 2.14869 -0.245455
0.854175 2.14869 -0.245455
0.864467 2.14869 -0.245455
0.874758 2.14869 -0.245455
0.879256 2.13462 -0.243849
0.89534 2.14869 -0.245455
0.905632 2.14869 -0.245455
0.921489 2.16175 -0.246947
0.931843 2.16175 -0.246947
0.960148 2.20293 -0.251652
-0.992537 2.43497 -0.289783
-0.913484 2.3517 -0.279873
-0.896048 2.33564 -0.277962
-0.878766 2.31959 -0.276052
-0.867642 2.31959 -0.276052
-0.856518 2.31959 -0.276052
-0.845395 2.31959 -0.276052
-0.840045 2.33564 -0.277962
-0.834541 2.3517 -0.279873
-0.817643 2.33564 -0.277962
-0.8009 2.31959 -0.276052
-0.795242 2.33564 -0.277962
-0.784042 2.33564 -0.277962
-0.778153 2.3517 -0.279873
-0.766875 2.3517 -0.279873
-0.75044 2.33564 -0.277962
-0.739239 2.33564 -0.277962
-0.733042 2.3517 -0.279873
-0.716838 2.33564 -0.277962
-0.705638 2.33564 -0.277962
-0.689664 2.31959 -0.276052
-0.678541 2.31959 -0.276052
-0.662798 2.30354 -0.274142
-0.647493 2.28849 -0.272351
-0.636519 2.28849 -0.272351
-0.625545 2.28849 -0.272351
-0.610529 2.27344 -0.27056
-0.595657 2.25839 -0.268769
-0.577293 2.2293 -0.265306
-0.566602 2.2293 -0.265306
-0.555911 2.2293 -0.265306
-0.54154 2.21425 -0.263515
-0.530922 2.21425 -0.263515
-0.520303 2.21425 -0.263515
-0.509685 2.21425 -0.263515
-0.499066 2.21425 -0.263515
-0.488448 2.21425 -0.263515
-0.47783 2.21425 -0.263515
-0.467211 2.21425 -0.263515
-0.456593 2.21425 -0.263515
-0.445974 2.21425 -0.263515
-0.432594 2.2002 -0.261843
-0.424737 2.21425 -0.263515
-0.414119 2.21425 -0.263515
-0.400941 2.2002 -0.261843
-0.387898 2.18615 -0.260172
-0.379839 2.2002 -0.261843
-0.369288 2.2002 -0.261843
-0.358737 2.2002 -0.261843
-0.348186 2.2002 -0.261843
-0.337634 2.2002 -0.261843
-0.327083 2.2002 -0.261843
-0.316532 2.2002 -0.261843
-0.305981 2.2002 -0.261843
-0.29543 2.2002 -0.261843
-0.284879 2.2002 -0.261843
-0.274328 2.2002 -0.261843
-0.263777 2.2002 -0.261843
-0.253226 2.2002 -0.261843
-0.242675 2.2002 -0.261843
-0.230642 2.18615 -0.260172
-0.220158 2.18615 -0.260172
-0.209674 2.18615 -0.260172
-0.198002 2.17311 -0.25862
-0.186369 2.15907 -0.256948
-0.17716 2.17311 -0.25862
-0.166739 2.17311 -0.25862
-0.156318 2.17311 -0.25862
-0.145896 2.17311 -0.25862
-0.1346 2.15907 -0.256948
-0.124246 2.15907 -0.256948
-0.113892 2.15907 -0.256948
-0.103538 2.15907 -0.256948
-0.0931843 2.15907 -0.256948
-0.0823301 2.14602 -0.255396
-0.0724767 2.15907 -0.256948
-0.0617476 2.14602 -0.255396
-0.0517691 2.15907 -0.256948
-0.0411651 2.14602 -0.255396
-0.0308738 2.14602 -0.255396
-0.0205825 2.14602 -0.255396
-0.0103538 2.15907 -0.256948
0 2.14602 -0.255396
0.0102239 2.13198 -0.253724
0.0205825 2.14602 -0.255396
0.0308738 2.14602 -0.255396
0.0411651 2.14602 -0.255396
0.0514563 2.14602 -0.255396
0.0617476 2.14602 -0.255396
0.0720389 2.14602 -0.255396
0.0817913 2.13198 -0.253724
0.0920152 2.13198 -0.253724
0.102239 2.13198 -0.253724
0.111775 2.11893 -0.252172
0.121936 2.11893 -0.252172
0.132098 2.11893 -0.252172
0.141383 2.10589 -0.25062
0.151482 2.10589 -0.25062
0.161581 2.10589 -0.25062
0.17168 2.10589 -0.25062
0.181779 2.10589 -0.25062
0.191878 2.10589 -0.25062
0.203227 2.11893 -0.252172
0.213389 2.11893 -0.252172
0.222174 2.10589 -0.25062
0.233711 2.11893 -0.252172
0.243873 2.11893 -0.252172
0.254034 2.11893 -0.252172
0.265822 2.13198 -0.253724
0.277864 2.14602 -0.255396
0.288156 2.14602 -0.255396
0.298447 2.14602 -0.255396
0.308738 2.14602 -0.255396
0.319029 2.14602 -0.255396
0.331322 2.15907 -0.256948
0.339612 2.14602 -0.255396
0.347613 2.13198 -0.253724
0.360194 2.14602 -0.255396
0.370486 2.14602 -0.255396
0.380777 2.14602 -0.255396
0.388509 2.13198 -0.253724
0.396293 2.11893 -0.252172
0.406455 2.11893 -0.252172
0.416616 2.11893 -0.252172
0.426777 2.11893 -0.252172
0.436939 2.11893 -0.252172
0.4471 2.11893 -0.252172
0.457261 2.11893 -0.252172
0.467423 2.11893 -0.252172
0.477584 2.11893 -0.252172
0.487746 2.11893 -0.252172
0.494842 2.10589 -0.25062
0.504941 2.10589 -0.25062
0.51823 2.11893 -0.252172
0.528391 2.11893 -0.252172
0.541867 2.13198 -0.253724
0.555728 2.14602 -0.255396
0.56602 2.14602 -0.255396
0.579814 2.15907 -0.256948
0.586602 2.14602 -0.255396
0.592987 2.13198 -0.253724
0.603211 2.13198 -0.253724
0.609682 2.11893 -0.252172
0.619843 2.11893 -0.252172
0.630005 2.11893 -0.252172
0.640166 2.11893 -0.252172
0.650327 2.11893 -0.252172
0.656423 2.10589 -0.25062
0.662394 2.09285 -0.249068
0.67243 2.09285 -0.249068
0.682466 2.09285 -0.249068
0.692503 2.09285 -0.249068
0.702539 2.09285 -0.249068
0.712575 2.09285 -0.249068
0.722612 2.09285 -0.249068
0.732648 2.09285 -0.249068
0.747313 2.10589 -0.25062
0.757411 2.10589 -0.25062
0.76751 2.10589 -0.25062
0.782425 2.11893 -0.252172
0.802719 2.14602 -0.255396
0.81301 2.14602 -0.255396
0.817913 2.13198 -0.253724
0.833593 2.14602 -0.255396
0.843884 2.14602 -0.255396
0.854175 2.14602 -0.255396
0.86972 2.15907 -0.256948
0.880074 2.15907 -0.256948
0.890428 2.15907 -0.256948
0.89534 2.14602 -0.255396
0.928495 2.2002 -0.261843
0.939046 2.2002 -0.261843
0.943535 2.18615 -0.260172
0.960148 2.2002 -0.261843
-0.99949 2.44898 -0.303171
-0.97399 2.41491 -0.298953
-0.962395 2.41491 -0.298953
-0.925954 2.38084 -0.294736
-0.908364 2.36481 -0.292751
-0.890928 2.34878 -0.290766
-0.879651 2.34878 -0.290766
-0.868373 2.34878 -0.290766
-0.862946 2.36481 -0.292751
-0.851592 2.36481 -0.292751
-0.840237 2.36481 -0.292751
-0.828882 2.36481 -0.292751
-0.811985 2.34878 -0.290766
-0.806173 2.36481 -0.292751
-0.794819 2.36481 -0.292751
-0.788776 2.38084 -0.294736
-0.777344 2.38084 -0.294736
-0.760755 2.36481 -0.292751
-0.749401 2.36481 -0.292751
-0.733042 2.34878 -0.290766
-0.726692 2.36481 -0.292751
-0.710487 2.34878 -0.290766
-0.694437 2.33274 -0.288781
-0.683236 2.33274 -0.288781
-0.667417 2.31671 -0.286797
-0.647493 2.28565 -0.282951
-0.636519 2.28565 -0.282951
-0.625545 2.28565 -0.282951
-0.606487 2.25559 -0.27923
-0.591688 2.24056 -0.277369
-0.573395 2.2115 -0.273772
-0.562777 2.2115 -0.273772
-0.552159 2.2115 -0.273772
-0.54154 2.2115 -0.273772
-0.530922 2.2115 -0.273772
-0.520303 2.2115 -0.273772
-0.509685 2.2115 -0.273772
-0.495901 2.19747 -0.272035
-0.48535 2.19747 -0.272035
-0.47783 2.2115 -0.273772
-0.464247 2.19747 -0.272035
-0.453696 2.19747 -0.272035
-0.443145 2.19747 -0.272035
-0.435356 2.2115 -0.273772
-0.422043 2.19747 -0.272035
-0.414119 2.2115 -0.273772
-0.400941 2.19747 -0.272035
-0.387898 2.18344 -0.270298
-0.377414 2.18344 -0.270298
-0.369288 2.19747 -0.272035
-0.358737 2.19747 -0.272035
-0.348186 2.19747 -0.272035
-0.337634 2.19747 -0.272035
-0.327083 2.19747 -0.272035
-0.316532 2.19747 -0.272035
-0.307935 2.2115 -0.273772
-0.297316 2.2115 -0.273772
-0.284879 2.19747 -0.272035
-0.274328 2.19747 -0.272035
-0.263777 2.19747 -0.272035
-0.253226 2.19747 -0.272035
-0.242675 2.19747 -0.272035
-0.232124 2.19747 -0.272035
-0.220158 2.18344 -0.270298
-0.208423 2.17041 -0.268686
-0.198002 2.17041 -0.268686
-0.187581 2.17041 -0.268686
-0.17716 2.17041 -0.268686
-0.166739 2.17041 -0.268686
-0.156318 2.17041 -0.268686
-0.145896 2.17041 -0.268686
-0.1346 2.15639 -0.266949
-0.124246 2.15639 -0.266949
-0.113204 2.14336 -0.265336
-0.102913 2.14336 -0.265336
-0.0920152 2.12933 -0.2636
-0.0823301 2.14336 -0.265336
-0.0720389 2.14336 -0.265336
-0.0617476 2.14336 -0.265336
-0.0511196 2.12933 -0.2636
-0.0411651 2.14336 -0.265336
-0.0308738 2.14336 -0.265336
-0.0205825 2.14336 -0.265336
-0.0102239 2.12933 -0.2636
0 2.12933 -0.2636
0.0102239 2.12933 -0.2636
0.0204478 2.12933 -0.2636
0.0308738 2.14336 -0.265336
0.0411651 2.14336 -0.265336
0.0511196 2.12933 -0.2636
0.0617476 2.14336 -0.265336
0.0715674 2.12933 -0.2636
0.0812909 2.1163 -0.261987
0.0914523 2.1163 -0.261987
0.102239 2.12933 -0.2636
0.112463 2.12933 -0.2636
0.121936 2.1163 -0.261987
0.132098 2.1163 -0.261987
0.141383 2.10328 -0.260375
0.15242 2.1163 -0.261987
0.162582 2.1163 -0.261987
0.172743 2.1163 -0.261987
0.182905 2.1163 -0.261987
0.193066 2.1163 -0.261987
0.204478 2.12933 -0.2636
0.214702 2.12933 -0.2636
0.226408 2.14336 -0.265336
0.236699 2.14336 -0.265336
0.24699 2.14336 -0.265336
0.257282 2.14336 -0.265336
0.267573 2.14336 -0.265336
0.277864 2.14336 -0.265336
0.288156 2.14336 -0.265336
0.298447 2.14336 -0.265336
0.308738 2.14336 -0.265336
0.319029 2.14336 -0.265336
0.329321 2.14336 -0.265336
0.339612 2.14336 -0.265336
0.349903 2.14336 -0.265336
0.357837 2.12933 -0.2636
0.370486 2.14336 -0.265336
0.378285 2.12933 -0.2636
0.388509 2.12933 -0.2636
0.396293 2.1163 -0.261987
0.406455 2.1163 -0.261987
0.416616 2.1163 -0.261987
0.426777 2.1163 -0.261987
0.436939 2.1163 -0.261987
0.4471 2.1163 -0.261987
0.457261 2.1163 -0.261987
0.467423 2.1163 -0.261987
0.477584 2.1163 -0.261987
0.487746 2.1163 -0.261987
0.497907 2.1163 -0.261987
0.508068 2.1163 -0.261987
0.51823 2.1163 -0.261987
0.528391 2.1163 -0.261987
0.541867 2.12933 -0.2636
0.555728 2.14336 -0.265336
0.56602 2.14336 -0.265336
0.579814 2.15639 -0.266949
0.586602 2.14336 -0.265336
0.596894 2.14336 -0.265336
0.603211 2.12933 -0.2636
0.613435 2.12933 -0.2636
0.623659 2.12933 -0.2636
0.633882 2.12933 -0.2636
0.644106 2.12933 -0.2636
0.65433 2.12933 -0.2636
0.660489 2.1163 -0.261987
0.67065 2.1163 -0.261987
0.680811 2.1163 -0.261987
0.68672 2.10328 -0.260375
0.692503 2.09025 -0.258762
0.706917 2.10328 -0.260375
0.717016 2.10328 -0.260375
0.722612 2.09025 -0.258762
0.732648 2.09025 -0.258762
0.742684 2.09025 -0.258762
0.766793 2.12933 -0.2636
0.772264 2.1163 -0.261987
0.782425 2.1163 -0.261987
0.797465 2.12933 -0.2636
0.807689 2.12933 -0.2636
0.817913 2.12933 -0.2636
0.828137 2.12933 -0.2636
0.843884 2.14336 -0.265336
0.854175 2.14336 -0.265336
0.86972 2.15639 -0.266949
0.880074 2.15639 -0.266949
0.885049 2.14336 -0.265336
0.89534 2.14336 -0.265336
0.922567 2.18344 -0.270298
0.939046 2.19747 -0.272035
0.955659 2.2115 -0.273772
0.966277 2.2115 -0.273772
-1.00685 2.46395 -0.316845
-0.98086 2.42892 -0.312341
-0.962395 2.41191 -0.310153
-0.9508 2.41191 -0.310153
-0.932579 2.3949 -0.307965
-0.914523 2.37788 -0.305778
-0.89701 2.36187 -0.303719
-0.89166 2.37788 -0.305778
-0.880228 2.37788 -0.305778
-0.868797 2.37788 -0.305778
-0.857365 2.37788 -0.305778
-0.845934 2.37788 -0.305778
-0.834502 2.37788 -0.305778
-0.823071 2.37788 -0.305778
-0.811639 2.37788 -0.305778
-0.805933 2.3949 -0.307965
-0.800063 2.41191 -0.310153
-0.788468 2.41191 -0.310153
-0.771393 2.3949 -0.307965
-0.75988 2.3949 -0.307965
-0.74305 2.37788 -0.305778
-0.731618 2.37788 -0.305778
-0.720187 2.37788 -0.305778
-0.708755 2.37788 -0.305778
-0.692628 2.36187 -0.303719
-0.676655 2.34586 -0.301659
-0.665377 2.34586 -0.301659
-0.649635 2.32985 -0.2996
-0.625545 2.28281 -0.293552
-0.610529 2.2678 -0.291621
-0.595657 2.25278 -0.289691
-0.58093 2.23777 -0.28776
-0.566602 2.22376 -0.285959
-0.555911 2.22376 -0.285959
-0.545221 2.22376 -0.285959
-0.53453 2.22376 -0.285959
-0.520303 2.20875 -0.284028
-0.506452 2.19474 -0.282227
-0.499066 2.20875 -0.284028
-0.488448 2.20875 -0.284028
-0.474798 2.19474 -0.282227
-0.464247 2.19474 -0.282227
-0.453696 2.19474 -0.282227
-0.443145 2.19474 -0.282227
-0.432594 2.19474 -0.282227
-0.422043 2.19474 -0.282227
-0.411492 2.19474 -0.282227
-0.398381 2.18073 -0.280425
-0.385583 2.16772 -0.278752
-0.377414 2.18073 -0.280425
-0.36693 2.18073 -0.280425
-0.358737 2.19474 -0.282227
-0.348186 2.19474 -0.282227
-0.337634 2.19474 -0.282227
-0.324995 2.18073 -0.280425
-0.314512 2.18073 -0.280425
-0.305981 2.19474 -0.282227
-0.29543 2.19474 -0.282227
-0.284879 2.19474 -0.282227
-0.274328 2.19474 -0.282227
-0.262093 2.18073 -0.280425
-0.253226 2.19474 -0.282227
-0.242675 2.19474 -0.282227
-0.230642 2.18073 -0.280425
-0.220158 2.18073 -0.280425
-0.208423 2.16772 -0.278752
-0.198002 2.16772 -0.278752
-0.187581 2.16772 -0.278752
-0.17716 2.16772 -0.278752
-0.167739 2.18073 -0.280425
-0.157256 2.18073 -0.280425
-0.145896 2.16772 -0.278752
-0.135475 2.16772 -0.278752
-0.124246 2.15371 -0.27695
-0.113892 2.15371 -0.27695
-0.102913 2.1407 -0.275277
-0.0926214 2.1407 -0.275277
-0.0823301 2.1407 -0.275277
-0.0720389 2.1407 -0.275277
-0.0617476 2.1407 -0.275277
-0.0514563 2.1407 -0.275277
-0.0411651 2.1407 -0.275277
-0.0308738 2.1407 -0.275277
-0.0205825 2.1407 -0.275277
-0.0102913 2.1407 -0.275277
0 2.12668 -0.273475
0.0102239 2.12668 -0.273475
0.0204478 2.12668 -0.273475
0.0308738 2.1407 -0.275277
0.0411651 2.1407 -0.275277
0.0514563 2.1407 -0.275277
0.0613435 2.12668 -0.273475
0.0720389 2.1407 -0.275277
0.0817913 2.12668 -0.273475
0.0920152 2.12668 -0.273475
0.102239 2.12668 -0.273475
0.113204 2.1407 -0.275277
0.123495 2.1407 -0.275277
0.132911 2.12668 -0.273475
0.143135 2.12668 -0.273475
0.154369 2.1407 -0.275277
0.163583 2.12668 -0.273475
0.173806 2.12668 -0.273475
0.18403 2.12668 -0.273475
0.194254 2.12668 -0.273475
0.205825 2.1407 -0.275277
0.216117 2.1407 -0.275277
0.227784 2.15371 -0.27695
0.238138 2.15371 -0.27695
0.248492 2.15371 -0.27695
0.258845 2.15371 -0.27695
0.269199 2.15371 -0.27695
0.279553 2.15371 -0.27695
0.289907 2.15371 -0.27695
0.300261 2.15371 -0.27695
0.310614 2.15371 -0.27695
0.320968 2.15371 -0.27695
0.333477 2.16772 -0.278752
0.341676 2.15371 -0.27695
0.349903 2.1407 -0.275277
0.360194 2.1407 -0.275277
0.370486 2.1407 -0.275277
0.380777 2.1407 -0.275277
0.388509 2.12668 -0.273475
0.396293 2.11367 -0.271802
0.406455 2.11367 -0.271802
0.416616 2.11367 -0.271802
0.426777 2.11367 -0.271802
0.436939 2.11367 -0.271802
0.4471 2.11367 -0.271802
