ply
format ascii 1.0
comment Created by Open3D
element vertex 875
property double x
property double y
property double z
end_header
-0.0367288 0.171556 -0.182399
-0.0357235 0.172929 -0.183858
-0.0351075 0.17636 -0.187506
-0.0354916 0.185281 -0.196991
-0.0306202 0.181164 -0.192613
0.00332492 0.177046 -0.188236
0.00463684 0.17636 -0.187506
0.0152946 0.177046 -0.188236
0.0167535 0.178419 -0.189695
0.0180937 0.178419 -0.189695
-0.0358473 0.166475 -0.17883
-0.0347312 0.167158 -0.179563
-0.0336049 0.16784 -0.180296
-0.0331255 0.171934 -0.184693
-0.0313213 0.169205 -0.181762
-0.0306485 0.172616 -0.185426
-0.0291124 0.171251 -0.18396
-0.0277077 0.170569 -0.183227
-0.0271587 0.175345 -0.188358
-0.0214135 0.18285 -0.19642
-0.0196583 0.179439 -0.192755
-0.0174674 0.171251 -0.18396
-0.0161735 0.171251 -0.18396
-0.0148204 0.170569 -0.183227
-0.0125857 0.175345 -0.188358
-0.0116553 0.181486 -0.194954
0.00199495 0.176027 -0.189091
0.00327337 0.173298 -0.186159
0.00452859 0.171251 -0.18396
0.00589207 0.173298 -0.186159
0.0104 0.183532 -0.197153
0.0112609 0.175345 -0.188358
0.0126837 0.17671 -0.189824
0.013694 0.172616 -0.185426
0.0147018 0.169205 -0.181762
0.0161735 0.171251 -0.18396
0.017885 0.175345 -0.188358
0.0198078 0.180803 -0.194221
-0.0355534 0.164155 -0.178166
-0.0344477 0.164834 -0.178902
-0.0331951 0.164834 -0.178902
-0.0324682 0.167547 -0.181847
-0.0314475 0.168904 -0.183319
-0.0299217 0.167547 -0.181847
-0.0284165 0.16619 -0.180375
-0.0275968 0.168904 -0.183319
-0.0264189 0.169582 -0.184056
-0.026638 0.179757 -0.195099
-0.0234549 0.176365 -0.191418
-0.0216893 0.172974 -0.187737
-0.0200552 0.17026 -0.184792
-0.0185371 0.168225 -0.182583
-0.0172586 0.168225 -0.182583
-0.0159802 0.168225 -0.182583
-0.0147611 0.168904 -0.183319
-0.0134775 0.168904 -0.183319
-0.0122429 0.169582 -0.184056
-0.0109542 0.169582 -0.184056
-0.0100907 0.177044 -0.192154
-0.00336358 0.177044 -0.192154
-0.00194082 0.17026 -0.184792
-0.000644364 0.169582 -0.184056
0.000657251 0.172974 -0.187737
0.00197175 0.172974 -0.187737
0.00323471 0.17026 -0.184792
0.00449251 0.168904 -0.183319
0.00577608 0.168904 -0.183319
0.00714471 0.170939 -0.185528
0.00851076 0.172295 -0.187001
0.00978145 0.171617 -0.186264
0.010998 0.17026 -0.184792
0.0123409 0.170939 -0.185528
0.0136399 0.170939 -0.185528
0.0149982 0.171617 -0.186264
0.0161091 0.169582 -0.184056
0.0173282 0.168904 -0.183319
0.0195088 0.177044 -0.192154
-0.0352596 0.161851 -0.177489
-0.0341642 0.162525 -0.178228
-0.0331951 0.163874 -0.179707
-0.0325997 0.167246 -0.183405
-0.0314475 0.16792 -0.184145
-0.0298006 0.165897 -0.181926
-0.0283005 0.164548 -0.180447
-0.0271535 0.165223 -0.181186
-0.0263133 0.16792 -0.184145
-0.0251302 0.168595 -0.184884
-0.0237461 0.16792 -0.184145
-0.0224625 0.16792 -0.184145
-0.021179 0.16792 -0.184145
-0.0201351 0.169943 -0.186363
-0.0185371 0.167246 -0.183405
-0.0171891 0.166572 -0.182665
-0.0159158 0.166572 -0.182665
-0.0146425 0.166572 -0.182665
-0.0134234 0.167246 -0.183405
-0.0121939 0.16792 -0.184145
-0.0109104 0.16792 -0.184145
-0.0096268 0.16792 -0.184145
-0.00851076 0.171292 -0.187842
-0.00720141 0.171292 -0.187842
-0.00577608 0.16792 -0.184145
-0.00451055 0.168595 -0.184884
-0.0032476 0.169943 -0.186363
-0.00193309 0.168595 -0.184884
-0.000644364 0.168595 -0.184884
0.000639209 0.167246 -0.183405
0.00194082 0.169269 -0.185624
0.00320893 0.16792 -0.184145
0.00445642 0.166572 -0.182665
0.00572969 0.166572 -0.182665
0.0070313 0.167246 -0.183405
0.00844375 0.169943 -0.186363
0.00974279 0.169943 -0.186363
0.0110418 0.169943 -0.186363
0.0122919 0.169269 -0.185624
0.0136399 0.169943 -0.186363
0.0149389 0.169943 -0.186363
0.0159802 0.167246 -0.183405
0.0172586 0.167246 -0.183405
0.0188361 0.169943 -0.186363
-0.0359942 0.164255 -0.181998
-0.0341642 0.161574 -0.179027
-0.0336049 0.164926 -0.182741
-0.0323368 0.164926 -0.182741
-0.0310687 0.164926 -0.182741
-0.0298006 0.164926 -0.182741
-0.0280685 0.162244 -0.17977
-0.0270427 0.163585 -0.181255
-0.0262076 0.166267 -0.184227
-0.0249292 0.166267 -0.184227
-0.0235554 0.165596 -0.183484
-0.0221919 0.164926 -0.182741
-0.0209238 0.164926 -0.182741
-0.0195758 0.164255 -0.181998
-0.0186118 0.166937 -0.18497
-0.0171195 0.164926 -0.182741
-0.0157869 0.164255 -0.181998
-0.0145832 0.164926 -0.182741
-0.0133151 0.164926 -0.182741
-0.012096 0.165596 -0.183484
-0.0108227 0.165596 -0.183484
-0.00954948 0.165596 -0.183484
-0.00834323 0.166937 -0.18497
-0.00705965 0.166937 -0.18497
-0.00575288 0.166267 -0.184227
-0.00447446 0.166267 -0.184227
-0.00320893 0.166937 -0.18497
-0.00192536 0.166937 -0.18497
-0.000636632 0.165596 -0.183484
0.000634054 0.164926 -0.182741
0.00193309 0.167607 -0.185712
0.00322182 0.167607 -0.185712
0.00443838 0.164926 -0.182741
0.00570649 0.164926 -0.182741
0.00705965 0.166937 -0.18497
0.00837673 0.167607 -0.185712
0.00974279 0.168948 -0.187198
0.0110418 0.168948 -0.187198
0.0122919 0.168278 -0.186455
0.0135858 0.168278 -0.186455
0.0148797 0.168278 -0.186455
0.0159802 0.166267 -0.184227
0.0171195 0.164926 -0.182741
0.0186118 0.166937 -0.18497
-0.0361411 0.163954 -0.183556
-0.0340224 0.159955 -0.179079
-0.0331951 0.161955 -0.181318
-0.0323368 0.163954 -0.183556
-0.0310687 0.163954 -0.183556
-0.0296794 0.163288 -0.18281
-0.0281845 0.161955 -0.181318
-0.026821 0.161288 -0.180572
-0.0256792 0.161955 -0.181318
-0.0245271 0.162621 -0.182064
-0.02346 0.163954 -0.183556
-0.0221919 0.163954 -0.183556
-0.0209238 0.163954 -0.183556
-0.0195758 0.163288 -0.18281
-0.0183876 0.163954 -0.183556
-0.0171195 0.163954 -0.183556
-0.0157225 0.162621 -0.182064
-0.014524 0.163288 -0.18281
-0.0133151 0.163954 -0.183556
-0.012047 0.163954 -0.183556
-0.0107789 0.163954 -0.183556
-0.00951081 0.163954 -0.183556
-0.0082092 0.163288 -0.18281
-0.0069746 0.163954 -0.183556
-0.00570649 0.163954 -0.183556
-0.00445642 0.164621 -0.184302
-0.00318316 0.164621 -0.184302
-0.00192536 0.165954 -0.185795
-0.000639209 0.165287 -0.185049
0.000639209 0.165287 -0.185049
0.00192536 0.165954 -0.185795
0.00318316 0.164621 -0.184302
0.00443838 0.163954 -0.183556
0.00568329 0.163288 -0.18281
0.00691789 0.162621 -0.182064
0.00834323 0.165954 -0.185795
0.00966546 0.16662 -0.186541
0.0107351 0.163288 -0.18281
0.0121939 0.165954 -0.185795
0.0135858 0.167287 -0.187287
0.0148204 0.16662 -0.186541
0.0161091 0.16662 -0.186541
0.0171891 0.164621 -0.184302
0.0183876 0.163954 -0.183556
0.0209341 0.174618 -0.195495
-0.0357004 0.160995 -0.182123
-0.0341642 0.15967 -0.180624
-0.0330585 0.160333 -0.181373
-0.0319424 0.160995 -0.182123
-0.0306898 0.160995 -0.182123
-0.0295583 0.161658 -0.182872
-0.0279525 0.15967 -0.180624
-0.0267102 0.15967 -0.180624
-0.0251508 0.157683 -0.178375
-0.023924 0.157683 -0.178375
-0.0228878 0.159008 -0.179874
-0.0221919 0.162983 -0.184371
-0.0204985 0.15967 -0.180624
-0.0194959 0.161658 -0.182872
-0.0183128 0.16232 -0.183622
-0.0170499 0.16232 -0.183622
-0.0157225 0.161658 -0.182872
-0.0144054 0.160995 -0.182123
-0.013261 0.16232 -0.183622
-0.0119981 0.16232 -0.183622
-0.0106913 0.161658 -0.182872
-0.00943349 0.161658 -0.182872
-0.0082092 0.16232 -0.183622
-0.00694625 0.16232 -0.183622
-0.00572969 0.163645 -0.185121
-0.00438425 0.160995 -0.182123
-0.00318316 0.163645 -0.185121
-0.0019099 0.163645 -0.185121
-0.000636632 0.163645 -0.185121
0.000636632 0.163645 -0.185121
0.0019099 0.163645 -0.185121
0.00318316 0.163645 -0.185121
0.0044023 0.161658 -0.182872
0.0056369 0.160995 -0.182123
0.00694625 0.16232 -0.183622
0.00827621 0.163645 -0.185121
0.00951081 0.162983 -0.184371
0.0107351 0.16232 -0.183622
0.0121939 0.16497 -0.18662
0.0134234 0.164308 -0.18587
0.0147018 0.164308 -0.18587
0.0160447 0.16497 -0.18662
0.0172586 0.164308 -0.18587
0.0182381 0.161658 -0.182872
0.020215 0.167621 -0.189618
-0.0354065 0.158719 -0.181422
-0.0338807 0.157401 -0.179917
-0.0329219 0.158719 -0.181422
-0.0316795 0.158719 -0.181422
-0.0304372 0.158719 -0.181422
-0.0294371 0.160036 -0.182928
-0.0279525 0.158719 -0.181422
-0.0265994 0.15806 -0.18067
-0.0251508 0.156743 -0.179164
-0.023924 0.156743 -0.179164
-0.0226971 0.156743 -0.179164
-0.0219213 0.160036 -0.182928
-0.0204985 0.158719 -0.181422
-0.0193361 0.159377 -0.182175
-0.0182381 0.160694 -0.183681
-0.0169107 0.160036 -0.182928
-0.0155936 0.159377 -0.182175
-0.0144054 0.160036 -0.182928
-0.0131528 0.160036 -0.182928
-0.0119981 0.161353 -0.184434
-0.0106475 0.160036 -0.182928
-0.00939483 0.160036 -0.182928
-0.00810868 0.159377 -0.182175
-0.00700295 0.16267 -0.185939
-0.00566009 0.160694 -0.183681
-0.0044023 0.160694 -0.183681
-0.00313161 0.160036 -0.182928
-0.0019099 0.16267 -0.185939
-0.000634054 0.162011 -0.185186
0.000623744 0.159377 -0.182175
0.00189443 0.161353 -0.184434
0.0032476 0.165963 -0.189703
0.0044023 0.160694 -0.183681
0.0056369 0.160036 -0.182928
0.00686119 0.159377 -0.182175
0.00817569 0.160694 -0.183681
0.00935617 0.159377 -0.182175
0.0107789 0.162011 -0.185186
0.0119981 0.161353 -0.184434
0.0131528 0.160036 -0.182928
0.0145832 0.162011 -0.185186
0.0158514 0.162011 -0.185186
0.0170499 0.161353 -0.184434
0.0181633 0.160036 -0.182928
0.019416 0.160036 -0.182928
-0.0373164 0.166277 -0.19205
-0.0337389 0.155803 -0.179953
-0.032512 0.155803 -0.179953
-0.0315481 0.157112 -0.181465
-0.0304372 0.157767 -0.182221
-0.029316 0.158421 -0.182977
-0.0278365 0.157112 -0.181465
-0.0263777 0.155803 -0.179953
-0.0255735 0.158421 -0.182977
-0.023924 0.155803 -0.179953
-0.0226971 0.155803 -0.179953
-0.0217408 0.157767 -0.182221
-0.0204985 0.157767 -0.182221
-0.0190165 0.155803 -0.179953
-0.0179391 0.157112 -0.181465
-0.0168411 0.158421 -0.182977
-0.0155936 0.158421 -0.182977
-0.0142868 0.157767 -0.182221
-0.0132069 0.159731 -0.184489
-0.0119001 0.159076 -0.183733
-0.0105598 0.157767 -0.182221
-0.00931751 0.157767 -0.182221
-0.00804166 0.157112 -0.181465
-0.00680449 0.157112 -0.181465
-0.0056137 0.158421 -0.182977
-0.00434817 0.157767 -0.182221
-0.00311872 0.158421 -0.182977
-0.00187897 0.159076 -0.183733
-0.000631477 0.160385 -0.185245
0.00061859 0.157112 -0.181465
0.0018403 0.155803 -0.179953
0.00315738 0.160385 -0.185245
0.00438425 0.159076 -0.183733
0.0055905 0.157767 -0.182221
0.00680449 0.157112 -0.181465
0.00804166 0.157112 -0.181465
0.00935617 0.158421 -0.182977
0.0106475 0.159076 -0.183733
0.0119001 0.159076 -0.183733
0.0131528 0.159076 -0.183733
0.0143461 0.158421 -0.182977
0.0157225 0.159731 -0.184489
0.0168411 0.158421 -0.182977
0.0179391 0.157112 -0.181465
0.0192562 0.157767 -0.182221
-0.0335971 0.154212 -0.179982
-0.0321022 0.152911 -0.178463
-0.0314166 0.155514 -0.181501
-0.0304372 0.156815 -0.18302
-0.0290737 0.156164 -0.18226
-0.0274886 0.154212 -0.179982
-0.0262669 0.154212 -0.179982
-0.0251508 0.154863 -0.180741
-0.0240245 0.155514 -0.181501
-0.0225064 0.153562 -0.179223
-0.0215604 0.155514 -0.181501
-0.0203284 0.155514 -0.181501
-0.0190964 0.155514 -0.181501
-0.0179391 0.156164 -0.18226
-0.0167715 0.156815 -0.18302
-0.0154647 0.156164 -0.18226
-0.0142276 0.156164 -0.18226
-0.0129363 0.155514 -0.181501
-0.0118022 0.156815 -0.18302
-0.0105598 0.156815 -0.18302
-0.00924018 0.155514 -0.181501
-0.00800816 0.155514 -0.181501
-0.00677613 0.155514 -0.181501
-0.00556731 0.156164 -0.18226
-0.00434817 0.156815 -0.18302
-0.00311872 0.157466 -0.183779
-0.00184804 0.155514 -0.181501
-0.000616012 0.155514 -0.181501
0.000616012 0.155514 -0.181501
0.0018403 0.154863 -0.180741
0.00313161 0.158117 -0.184538
0.00438425 0.158117 -0.184538
0.00556731 0.156164 -0.18226
0.00677613 0.155514 -0.181501
0.00800816 0.155514 -0.181501
0.00931751 0.156815 -0.18302
0.0106037 0.157466 -0.183779
0.0119001 0.158117 -0.184538
0.0130445 0.156815 -0.18302
0.0143461 0.157466 -0.183779
0.0155936 0.157466 -0.183779
0.0168411 0.157466 -0.183779
0.0178644 0.155514 -0.181501
0.0192562 0.156815 -0.18302
0.0208387 0.159418 -0.186057
-0.0331719 0.151336 -0.178479
-0.0322388 0.15263 -0.180005
-0.0315481 0.155217 -0.183055
-0.0303109 0.155217 -0.183055
-0.0289526 0.15457 -0.182293
-0.0274886 0.153277 -0.180767
-0.026156 0.15263 -0.180005
-0.0248338 0.151983 -0.179242
-0.0240245 0.15457 -0.182293
-0.0227924 0.15457 -0.182293
-0.0214702 0.153923 -0.18153
-0.0201583 0.153277 -0.180767
-0.0190964 0.15457 -0.182293
-0.0178644 0.15457 -0.182293
-0.0166323 0.15457 -0.182293
-0.0154003 0.15457 -0.182293
-0.014109 0.153923 -0.18153
-0.0129363 0.15457 -0.182293
-0.0117532 0.155217 -0.183055
-0.010516 0.155217 -0.183055
-0.00924018 0.15457 -0.182293
-0.00787413 0.151983 -0.179242
-0.00669108 0.15263 -0.180005
-0.00554411 0.15457 -0.182293
-0.00433013 0.155217 -0.183055
-0.00310584 0.155863 -0.183818
-0.00184804 0.15457 -0.182293
-0.000616012 0.15457 -0.182293
0.000610857 0.153277 -0.180767
0.00183257 0.153277 -0.180767
0.00308006 0.15457 -0.182293
0.00433013 0.155217 -0.183055
0.00554411 0.15457 -0.182293
0.00674778 0.153923 -0.18153
0.00794114 0.153277 -0.180767
0.00927884 0.155217 -0.183055
0.0106037 0.15651 -0.184581
0.0118022 0.155863 -0.183818
0.0130445 0.155863 -0.183818
0.0142276 0.155217 -0.183055
0.0155292 0.155863 -0.183818
0.0168411 0.15651 -0.184581
0.0177896 0.153923 -0.18153
0.0189366 0.153277 -0.180767
0.0206686 0.157157 -0.185344
-0.0330301 0.14977 -0.178488
-0.0316924 0.149127 -0.177722
-0.0304965 0.149127 -0.177722
-0.0305635 0.155555 -0.185383
-0.0289526 0.153626 -0.183085
-0.0273726 0.151698 -0.180786
-0.0260452 0.151055 -0.18002
-0.0249395 0.151698 -0.180786
-0.023924 0.152983 -0.182319
-0.0226971 0.152983 -0.182319
-0.02138 0.152341 -0.181553
-0.0200732 0.151698 -0.180786
-0.0189366 0.152341 -0.181553
-0.0177896 0.152983 -0.182319
-0.0165627 0.152983 -0.182319
-0.0153359 0.152983 -0.182319
-0.0139904 0.151698 -0.180786
-0.012828 0.152341 -0.181553
-0.0116553 0.152983 -0.182319
-0.0104284 0.152983 -0.182319
-0.00908553 0.151055 -0.18002
-0.00784062 0.150412 -0.179254
-0.00666273 0.151055 -0.18002
-0.00547452 0.151698 -0.180786
-0.00431208 0.153626 -0.183085
-0.00308006 0.153626 -0.183085
-0.0018403 0.152983 -0.182319
-0.000613435 0.152983 -0.182319
0.000613435 0.152983 -0.182319
0.00180937 0.150412 -0.179254
0.00300274 0.14977 -0.178488
0.00429404 0.152983 -0.182319
0.00552091 0.152983 -0.182319
0.00666273 0.151055 -0.18002
0.00794114 0.152341 -0.181553
0.00920152 0.152983 -0.182319
0.0105598 0.154912 -0.184617
0.0117532 0.154269 -0.183851
0.0128821 0.152983 -0.182319
0.014109 0.152983 -0.182319
0.0154647 0.154269 -0.183851
0.0167715 0.154912 -0.184617
0.0177149 0.152341 -0.181553
0.0188567 0.151698 -0.180786
0.0201583 0.152341 -0.181553
-0.036288 0.157793 -0.190031
-0.0333136 0.150127 -0.180799
-0.0315558 0.147572 -0.177722
-0.030365 0.147572 -0.177722
-0.0294268 0.148849 -0.17926
-0.0287103 0.151405 -0.182338
-0.0273726 0.150766 -0.181568
-0.0260452 0.150127 -0.180799
-0.0247281 0.149488 -0.18003
-0.0238234 0.151405 -0.182338
-0.0226971 0.152044 -0.183107
-0.0212898 0.150766 -0.181568
-0.0199882 0.150127 -0.180799
-0.0189366 0.151405 -0.182338
-0.0176401 0.150766 -0.181568
-0.0164931 0.151405 -0.182338
-0.0153359 0.152044 -0.183107
-0.0139312 0.150127 -0.180799
-0.0127739 0.150766 -0.181568
-0.0115083 0.150127 -0.180799
-0.0102531 0.149488 -0.18003
-0.00908553 0.150127 -0.180799
-0.00780712 0.148849 -0.17926
-0.00666273 0.150127 -0.180799
-0.00547452 0.150766 -0.181568
-0.00429404 0.152044 -0.183107
-0.00306717 0.152044 -0.183107
-0.0018403 0.152044 -0.183107
-0.000613435 0.152044 -0.183107
0.000613435 0.152044 -0.183107
0.00181711 0.150127 -0.180799
0.00301562 0.149488 -0.18003
0.00423992 0.150127 -0.180799
0.00547452 0.150766 -0.181568
0.00669108 0.150766 -0.181568
0.00780712 0.148849 -0.17926
0.00916286 0.151405 -0.182338
0.0103846 0.151405 -0.182338
0.0116553 0.152044 -0.183107
0.012828 0.151405 -0.182338
0.0139312 0.150127 -0.180799
0.0153359 0.152044 -0.183107
0.0165627 0.152044 -0.183107
0.0177896 0.152044 -0.183107
0.0189366 0.151405 -0.182338
0.0201583 0.151405 -0.182338
0.0220115 0.155877 -0.187723
-0.0333136 0.149199 -0.181578
-0.031829 0.147929 -0.180032
-0.0304965 0.147294 -0.17926
-0.0295531 0.148564 -0.180805
-0.028468 0.149199 -0.181578
-0.0271406 0.148564 -0.180805
-0.0257127 0.147294 -0.17926
-0.0245168 0.147294 -0.17926
-0.0236224 0.149199 -0.181578
-0.0226971 0.151104 -0.183896
-0.0212898 0.149834 -0.18235
-0.0200732 0.149834 -0.18235
-0.0187768 0.149199 -0.181578
-0.0176401 0.149834 -0.18235
-0.0164236 0.149834 -0.18235
-0.0151426 0.149199 -0.181578
-0.0138719 0.148564 -0.180805
-0.0126115 0.147929 -0.180032
-0.0114104 0.147929 -0.180032
-0.0102531 0.148564 -0.180805
-0.00896955 0.147294 -0.17926
-0.00780712 0.147929 -0.180032
-0.00542812 0.148564 -0.180805
-0.00425796 0.149834 -0.18235
-0.00305429 0.150469 -0.183123
-0.00182484 0.149834 -0.18235
-0.00060828 0.149834 -0.18235
0.000610857 0.150469 -0.183123
0.00183257 0.150469 -0.183123
0.00302851 0.149199 -0.181578
0.00423992 0.149199 -0.181578
0.00549771 0.150469 -0.183123
0.00663437 0.148564 -0.180805
0.00780712 0.147929 -0.180032
0.00908553 0.149199 -0.181578
0.0103846 0.150469 -0.183123
0.0116063 0.150469 -0.183123
0.012828 0.150469 -0.183123
0.0138719 0.148564 -0.180805
0.0150781 0.148564 -0.180805
0.0165627 0.151104 -0.183896
0.0176401 0.149834 -0.18235
0.0189366 0.150469 -0.183123
0.0201583 0.150469 -0.183123
0.0217408 0.153008 -0.186214
-0.0333136 0.148271 -0.182356
-0.0315558 0.145747 -0.179253
-0.030365 0.145747 -0.179253
-0.0294268 0.147009 -0.180804
-0.0282257 0.147009 -0.180804
-0.0269086 0.146378 -0.180029
-0.0257127 0.146378 -0.180029
-0.0243054 0.145116 -0.178477
-0.0232203 0.145747 -0.179253
-0.022411 0.148271 -0.182356
-0.0211996 0.148271 -0.182356
-0.0199031 0.14764 -0.18158
-0.018617 0.147009 -0.180804
-0.0173411 0.146378 -0.180029
-0.016354 0.148271 -0.182356
-0.0150781 0.14764 -0.18158
-0.0138126 0.147009 -0.180804
-0.0125032 0.145747 -0.179253
-0.0113125 0.145747 -0.179253
-0.0102531 0.14764 -0.18158
-0.00893089 0.145747 -0.179253
-0.00422187 0.14764 -0.18158
-0.00298985 0.146378 -0.180029
-0.00179391 0.146378 -0.180029
-0.000605702 0.148271 -0.182356
0.000603125 0.14764 -0.18158
0.00181711 0.148271 -0.182356
0.00301562 0.14764 -0.18158
0.00420383 0.147009 -0.180804
0.00547452 0.148902 -0.183132
0.00669108 0.148902 -0.183132
0.00777361 0.146378 -0.180029
0.00893089 0.145747 -0.179253
0.0102531 0.14764 -0.18158
0.0116063 0.149533 -0.183908
0.0127739 0.148902 -0.183132
0.0138126 0.147009 -0.180804
0.0150137 0.147009 -0.180804
0.016354 0.148271 -0.182356
0.0175654 0.148271 -0.182356
0.0186969 0.14764 -0.18158
0.0199031 0.14764 -0.18158
0.0217408 0.152057 -0.187012
-0.0345895 0.152986 -0.190149
-0.0278623 0.144208 -0.179239
-0.0267927 0.144835 -0.180018
-0.0256019 0.144835 -0.180018
-0.0243054 0.144208 -0.179239
-0.0231198 0.144208 -0.179239
-0.0221249 0.145462 -0.180797
-0.0210192 0.146089 -0.181577
-0.0198181 0.146089 -0.181577
-0.0184572 0.144835 -0.180018
-0.0171916 0.144208 -0.179239
-0.0162148 0.146089 -0.181577
-0.0151426 0.147343 -0.183135
-0.0137533 0.145462 -0.180797
-0.0125574 0.145462 -0.180797
-0.0113614 0.145462 -0.180797
-0.0102093 0.146089 -0.181577
-0.00896955 0.145462 -0.180797
-0.00298985 0.145462 -0.180797
-0.00179391 0.145462 -0.180797
-0.000600547 0.146089 -0.181577
0.000600547 0.146089 -0.181577
0.00180937 0.146716 -0.182356
0.00300274 0.146089 -0.181577
0.00416775 0.144835 -0.180018
0.00538173 0.145462 -0.180797
0.00666273 0.147343 -0.183135
0.00777361 0.145462 -0.180797
0.00893089 0.144835 -0.180018
0.0100779 0.144208 -0.179239
0.0113614 0.145462 -0.180797
0.0126656 0.146716 -0.182356
0.0138126 0.146089 -0.181577
0.0150137 0.146089 -0.181577
0.016354 0.147343 -0.183135
0.0174906 0.146716 -0.182356
0.0187768 0.147343 -0.183135
0.019733 0.145462 -0.180797
0.0209289 0.145462 -0.180797
0.02346 0.15424 -0.191707
-0.0269086 0.144546 -0.181566
-0.0257127 0.144546 -0.181566
-0.0243054 0.1433 -0.180001
-0.0208387 0.143923 -0.180783
-0.019733 0.144546 -0.181566
-0.0184572 0.143923 -0.180783
-0.016006 0.1433 -0.180001
-0.0149492 0.144546 -0.181566
-0.013694 0.143923 -0.180783
-0.0125032 0.143923 -0.180783
-0.0113125 0.143923 -0.180783
-0.0101655 0.144546 -0.181566
-0.00896955 0.144546 -0.181566
-0.0077066 0.1433 -0.180001
-0.00414971 0.1433 -0.180001
-0.00297696 0.143923 -0.180783
-0.00179391 0.144546 -0.181566
-0.000595392 0.143923 -0.180783
0.00059797 0.144546 -0.181566
0.00179391 0.144546 -0.181566
0.00297696 0.143923 -0.180783
0.00416775 0.143923 -0.180783
0.00535853 0.143923 -0.180783
0.00654932 0.143923 -0.180783
0.0077401 0.143923 -0.180783
0.00893089 0.143923 -0.180783
0.013694 0.143923 -0.180783
0.0150781 0.145792 -0.183131
0.0162148 0.145169 -0.182349
0.0176401 0.147038 -0.184696
0.0187768 0.146415 -0.183914
0.019733 0.144546 -0.181566
0.0209289 0.144546 -0.181566
0.0227924 0.148907 -0.187044
-0.0269086 0.14363 -0.182335
-0.0257127 0.14363 -0.182335
-0.019648 0.143011 -0.181549
-0.0184572 0.143011 -0.181549
-0.0124491 0.142392 -0.180763
-0.00893089 0.143011 -0.181549
-0.00298985 0.14363 -0.182335
-0.00178618 0.143011 -0.181549
-0.000595392 0.143011 -0.181549
0.000595392 0.143011 -0.181549
0.00178618 0.143011 -0.181549
0.00296408 0.142392 -0.180763
0.00660602 0.144249 -0.183121
0.00777361 0.14363 -0.182335
0.013694 0.143011 -0.181549
0.0149492 0.14363 -0.182335
0.0162148 0.144249 -0.183121
0.0174159 0.144249 -0.183121
0.0186969 0.144868 -0.183907
0.0199882 0.145487 -0.184692
0.0211094 0.144868 -0.183907
0.0226017 0.146725 -0.186264
-0.0335971 0.145789 -0.18705
-0.0184572 0.142099 -0.182314
-0.00178618 0.142099 -0.182314
0.000595392 0.142099 -0.182314
0.00296408 0.141483 -0.181525
0.00654932 0.142099 -0.182314
0.0077066 0.141483 -0.181525
0.0124491 0.141483 -0.181525
0.0136347 0.141483 -0.181525
0.0148204 0.141483 -0.181525
0.0185371 0.142714 -0.183103
0.0198181 0.143329 -0.183893
0.0209289 0.142714 -0.183103
0.022411 0.144559 -0.185471
0.0248286 0.151941 -0.194942
-0.0343059 0.14791 -0.191798
-0.0315558 0.141186 -0.18308
0.019648 0.141186 -0.18308
0.0233208 0.141798 -0.183872
-0.0333317 0.148168 -0.194191
0.0246224 0.141489 -0.185437
-0.0338781 0.149618 -0.198197
0.0263777 0.142645 -0.190993
0.0256019 0.137538 -0.186141
0.0288804 0.148255 -0.200646
0.0313213 0.147659 -0.19984
-0.0322388 0.139583 -0.190952
0.0277205 0.141357 -0.19338
0.029316 0.143131 -0.195807
0.0276046 0.139826 -0.193359
-0.0351127 0.139469 -0.194964
0.0273726 0.137719 -0.192516
-0.0352596 0.139105 -0.196575
0.0279525 0.139685 -0.197394
0.0290737 0.139105 -0.196575
-0.0340843 0.133552 -0.190791
0.0115573 0.135855 -0.19408
0.0127197 0.135279 -0.193258
0.0137533 0.133552 -0.190791
0.0148204 0.132401 -0.189146
0.0243054 0.132401 -0.189146
0.0267102 0.138733 -0.198192
0.0496831 0.14046 -0.200659
-0.0172664 0.132064 -0.190734
-0.0152714 0.135495 -0.195688
-0.0124491 0.131493 -0.189908
-0.00310584 0.137782 -0.198991
0.0101655 0.132636 -0.19156
0.0115083 0.134351 -0.194037
0.0127197 0.134351 -0.194037
0.0138719 0.13378 -0.193211
0.0150781 0.13378 -0.193211
0.0161452 0.132636 -0.19156
0.0254678 0.137782 -0.198991
-0.0331719 0.132856 -0.193986
-0.0204985 0.13683 -0.199789
-0.0191763 0.136262 -0.19896
0.00547452 0.133991 -0.195644
0.00657767 0.13172 -0.192328
0.00787413 0.133423 -0.194815
0.00927884 0.136262 -0.19896
0.0103408 0.133991 -0.195644
0.0114594 0.132856 -0.193986
0.0127197 0.133423 -0.194815
0.0139904 0.133991 -0.195644
0.0150137 0.132288 -0.193157
0.016354 0.133423 -0.194815
0.0175654 0.133423 -0.194815
0.0184572 0.131152 -0.191499
0.0248338 0.133423 -0.194815
-0.0316924 0.130804 -0.193097
-0.0304965 0.130804 -0.193097
0.0103846 0.133623 -0.197259
0.0115083 0.132495 -0.195594
0.012828 0.133623 -0.197259
0.0140497 0.133623 -0.197259
0.0152714 0.133623 -0.197259
0.0164236 0.133059 -0.196426
0.0177896 0.134187 -0.198091
0.0190165 0.134187 -0.198091
0.0329219 0.135878 -0.200588
-0.0760865 0.134367 -0.200551
-0.0315558 0.129328 -0.19303
0.010516 0.134367 -0.200551
0.0116063 0.132687 -0.198044
0.012828 0.132687 -0.198044
0.014109 0.133247 -0.19888
0.0153359 0.133247 -0.19888
0.0165627 0.133247 -0.19888
-0.0308908 0.130639 -0.197151
-0.0291742 0.128416 -0.193796
0.0117042 0.132863 -0.200507
0.0128821 0.132307 -0.199668
0.0140497 0.131751 -0.198829
0.0154003 0.132863 -0.200507
0.0203284 0.132863 -0.200507
0.0210192 0.129527 -0.195473
0.0220295 0.128416 -0.193796
0.0235219 0.130083 -0.196312
-0.0644106 0.131367 -0.200457
-0.0298057 0.130263 -0.198772
-0.025491 0.126952 -0.193719
-0.0220295 0.127503 -0.194561
0.0140497 0.130815 -0.199615
0.0424559 0.128055 -0.195403
-0.0678052 0.129879 -0.2004
-0.0660215 0.128783 -0.198709
-0.0625162 0.126591 -0.195326
-0.0379969 0.128235 -0.197863
-0.0296794 0.128783 -0.198709
-0.0244111 0.126591 -0.195326
-0.0232203 0.126591 -0.195326
-0.0222203 0.127687 -0.197018
-0.00787413 0.128783 -0.198709
0.004276 0.129879 -0.2004
0.012828 0.129879 -0.2004
0.0140497 0.129879 -0.2004
-0.0291742 0.125679 -0.196092
-0.0257127 0.126223 -0.196941
-0.0243054 0.125135 -0.195243
-0.0234213 0.126767 -0.19779
-0.0225064 0.128399 -0.200336
-0.00784062 0.127311 -0.198638
0.0246224 0.126767 -0.19779
-0.0548844 0.126387 -0.199414
-0.0304965 0.125307 -0.197709
-0.0291742 0.124767 -0.196857
-0.0279834 0.124767 -0.196857
-0.0267927 0.124767 -0.196857
-0.0256019 0.124767 -0.196857
-0.0243054 0.124227 -0.196005
-0.0233208 0.125307 -0.197709
-0.0894816 0.124927 -0.199334
-0.0687665 0.124391 -0.198478
-0.030365 0.123855 -0.197623
-0.0291742 0.123855 -0.197623
-0.0257127 0.124391 -0.198478
-0.0243054 0.123319 -0.196767
-0.0234213 0.124927 -0.199334
-0.04384 0.124007 -0.200106
-0.0306279 0.124007 -0.200106
-0.0290479 0.12241 -0.197529
-0.0279834 0.122943 -0.198388
-0.0266767 0.12241 -0.197529
-0.0926853 0.122559 -0.200016
-0.0726662 0.123087 -0.200878
-0.0446544 0.12203 -0.199154
-0.0432755 0.121502 -0.198291
-0.0376721 0.122559 -0.200016
-0.0304965 0.122559 -0.200016
-0.0293005 0.122559 -0.200016
-0.0244111 0.12203 -0.199154
0.030365 0.12203 -0.199154
-0.091095 0.121118 -0.199919
-0.0732333 0.121118 -0.199919
-0.0517991 0.121118 -0.199919
-0.0304965 0.121642 -0.200784
-0.0791872 0.120206 -0.200684
-0.0693594 0.119686 -0.199816
-0.0527605 0.119686 -0.199816
-0.0515749 0.119686 -0.199816
-0.0503893 0.119686 -0.199816
-0.0492036 0.119686 -0.199816
-0.0456468 0.119686 -0.199816
