ply
format ascii 1.0
comment Created by Open3D
element vertex 1616
property double x
property double y
property double z
end_header
-0.00705965 0.172837 -0.180019
-0.00586887 0.175613 -0.182911
-0.00483531 0.186025 -0.193756
-0.00341513 0.183943 -0.191587
-0.00192536 0.172837 -0.180019
-0.000636632 0.171448 -0.178573
0.000641787 0.172837 -0.180019
0.00193309 0.173531 -0.180742
0.00328626 0.177001 -0.184357
0.0046188 0.177696 -0.18508
0.00584567 0.174919 -0.182188
0.0070313 0.172143 -0.179296
0.00824271 0.170754 -0.17785
0.00951081 0.170754 -0.17785
0.0110418 0.174919 -0.182188
-0.0280401 0.174614 -0.183749
-0.0262076 0.171163 -0.180118
-0.0247281 0.169783 -0.178665
-0.0235554 0.170473 -0.179392
-0.0221017 0.169093 -0.177939
-0.021179 0.171853 -0.180844
-0.0198954 0.171853 -0.180844
-0.0184623 0.170473 -0.179392
-0.0171891 0.170473 -0.179392
-0.0159158 0.170473 -0.179392
-0.0147018 0.171163 -0.180118
-0.0134234 0.171163 -0.180118
-0.0122429 0.172544 -0.181571
-0.0108227 0.170473 -0.179392
-0.00954948 0.170473 -0.179392
-0.00834323 0.171853 -0.180844
-0.0070313 0.171163 -0.180118
-0.00575288 0.171163 -0.180118
-0.00447446 0.171163 -0.180118
-0.00320893 0.171853 -0.180844
-0.00191763 0.171163 -0.180118
-0.000639209 0.171163 -0.180118
0.000639209 0.171163 -0.180118
0.00193309 0.172544 -0.181571
0.00320893 0.171853 -0.180844
0.00449251 0.171853 -0.180844
0.00579928 0.172544 -0.181571
0.0070313 0.171163 -0.180118
0.0082092 0.169093 -0.177939
0.00939483 0.167712 -0.176487
0.0108666 0.171163 -0.180118
-0.0284835 0.17636 -0.187506
-0.0259962 0.168811 -0.179481
-0.0247281 0.168811 -0.179481
-0.0235554 0.169498 -0.18021
-0.0221919 0.168811 -0.179481
-0.0210088 0.169498 -0.18021
-0.0196557 0.168811 -0.179481
-0.0183876 0.168811 -0.179481
-0.0171891 0.169498 -0.18021
-0.0158514 0.168811 -0.179481
-0.0147018 0.170184 -0.18094
-0.0134775 0.17087 -0.181669
-0.012145 0.170184 -0.18094
-0.0108227 0.169498 -0.18021
-0.00951081 0.168811 -0.179481
-0.00830972 0.170184 -0.18094
-0.0070313 0.170184 -0.18094
-0.00575288 0.170184 -0.18094
-0.00445642 0.169498 -0.18021
-0.00318316 0.169498 -0.18021
-0.00192536 0.17087 -0.181669
-0.000636632 0.169498 -0.18021
0.000636632 0.169498 -0.18021
0.00192536 0.17087 -0.181669
0.00318316 0.169498 -0.18021
0.00445642 0.169498 -0.18021
0.00577608 0.17087 -0.181669
0.00700295 0.169498 -0.18021
0.00817569 0.167439 -0.178021
0.00939483 0.166753 -0.177292
0.0106913 0.167439 -0.178021
0.0123898 0.173615 -0.184588
-0.0272643 0.16784 -0.180296
-0.0258906 0.167158 -0.179563
-0.0246276 0.167158 -0.179563
-0.02346 0.16784 -0.180296
-0.0223723 0.169205 -0.181762
-0.0210939 0.169205 -0.181762
-0.0197356 0.168522 -0.181029
-0.0184623 0.168522 -0.181029
-0.0171195 0.16784 -0.180296
-0.0158514 0.16784 -0.180296
-0.0146425 0.168522 -0.181029
-0.0133693 0.168522 -0.181029
-0.012096 0.168522 -0.181029
-0.0108227 0.168522 -0.181029
-0.00954948 0.168522 -0.181029
-0.00827621 0.168522 -0.181029
-0.00700295 0.168522 -0.181029
-0.00575288 0.169205 -0.181762
-0.00445642 0.168522 -0.181029
-0.00318316 0.168522 -0.181029
-0.0019099 0.168522 -0.181029
-0.000639209 0.169205 -0.181762
0.000641787 0.169887 -0.182494
0.00192536 0.169887 -0.182494
0.00319605 0.169205 -0.181762
0.00447446 0.169205 -0.181762
0.00575288 0.169205 -0.181762
0.0070313 0.169205 -0.181762
0.00824271 0.16784 -0.180296
0.00931751 0.164429 -0.176631
0.0104284 0.162382 -0.174432
0.0116063 0.1617 -0.1737
0.0136399 0.171934 -0.184693
-0.0270427 0.165512 -0.179638
-0.0254678 0.163477 -0.17743
-0.024326 0.164155 -0.178166
-0.0233646 0.16619 -0.180375
-0.0223723 0.168225 -0.182583
-0.021179 0.168904 -0.183319
-0.0197356 0.167547 -0.181847
-0.0184623 0.167547 -0.181847
-0.0173282 0.168904 -0.183319
-0.0160447 0.168904 -0.183319
-0.0147611 0.168904 -0.183319
-0.0134775 0.168904 -0.183319
-0.0121939 0.168904 -0.183319
-0.0108666 0.168225 -0.182583
-0.00958814 0.168225 -0.182583
-0.00830972 0.168225 -0.182583
-0.0070313 0.168225 -0.182583
-0.00575288 0.168225 -0.182583
-0.00451055 0.169582 -0.184056
-0.00319605 0.168225 -0.182583
-0.00191763 0.168225 -0.182583
-0.000641787 0.168904 -0.183319
0.000641787 0.168904 -0.183319
0.00194082 0.17026 -0.184792
0.0032476 0.170939 -0.185528
0.00447446 0.168225 -0.182583
0.00575288 0.168225 -0.182583
0.0070313 0.168225 -0.182583
0.00824271 0.166869 -0.181111
0.00935617 0.164155 -0.178166
0.0103846 0.160764 -0.174485
0.0115573 0.160085 -0.173749
0.0127739 0.160085 -0.173749
-0.0295763 0.171967 -0.188582
-0.0264885 0.161177 -0.176749
-0.0250451 0.159828 -0.17527
-0.0242255 0.162525 -0.178228
-0.0232693 0.164548 -0.180447
-0.0222821 0.166572 -0.182665
-0.0210939 0.167246 -0.183405
-0.0198155 0.167246 -0.183405
-0.0186118 0.16792 -0.184145
-0.0173978 0.168595 -0.184884
-0.0163668 0.171292 -0.187842
-0.0150575 0.171292 -0.187842
-0.0137482 0.171292 -0.187842
-0.0123898 0.170618 -0.187103
-0.0111733 0.171967 -0.188582
-0.0100521 0.175338 -0.192279
-0.00881232 0.177362 -0.194498
-0.00619363 0.180059 -0.197456
-0.0047451 0.177362 -0.194498
0.00463684 0.173315 -0.190061
0.00577608 0.16792 -0.184145
0.0070313 0.167246 -0.183405
0.00827621 0.166572 -0.182665
0.00947215 0.165223 -0.181186
0.0103846 0.159828 -0.17527
0.0115573 0.159153 -0.174531
0.0127197 0.158479 -0.173791
0.014524 0.165223 -0.181186
0.0175267 0.183431 -0.201154
-0.0286484 0.165596 -0.183484
-0.026156 0.158221 -0.175313
-0.0247281 0.156881 -0.173827
-0.0236224 0.157551 -0.17457
-0.0233646 0.164255 -0.181998
-0.0221017 0.164255 -0.181998
0.00476314 0.176993 -0.196112
0.00577608 0.166937 -0.18497
0.0070313 0.166267 -0.184227
0.00834323 0.166937 -0.18497
0.00954948 0.165596 -0.183484
0.0103408 0.158221 -0.175313
0.0115083 0.157551 -0.17457
0.0127197 0.157551 -0.17457
0.0138719 0.156881 -0.173827
-0.0277205 0.159289 -0.178333
-0.0260452 0.156623 -0.175348
-0.0246224 0.15529 -0.173856
-0.0236224 0.156623 -0.175348
-0.0229832 0.160622 -0.179825
-0.0220115 0.162621 -0.182064
0.00575288 0.165287 -0.185049
0.00705965 0.165954 -0.185795
0.00837673 0.16662 -0.186541
0.0096268 0.165954 -0.185795
0.0103846 0.157956 -0.176841
0.0114594 0.155957 -0.174602
0.0127197 0.156623 -0.175348
0.013694 0.153957 -0.172364
0.0151426 0.156623 -0.175348
-0.0270246 0.15437 -0.174628
-0.0256019 0.153045 -0.173129
-0.0244111 0.153045 -0.173129
-0.0236224 0.155695 -0.176127
-0.0227924 0.158345 -0.179125
-0.0218311 0.160333 -0.181373
0.00579928 0.165633 -0.187369
0.00708801 0.165633 -0.187369
0.00837673 0.165633 -0.187369
0.00966546 0.165633 -0.187369
0.0107351 0.16232 -0.183622
0.0114104 0.15437 -0.174628
0.012395 0.15172 -0.17163
0.0135755 0.15172 -0.17163
0.0148204 0.152382 -0.17238
0.0170499 0.16232 -0.183622
-0.0299217 0.16267 -0.185939
-0.0272566 0.154767 -0.176906
-0.0253802 0.150816 -0.172389
-0.0243054 0.151474 -0.173142
-0.0235219 0.154108 -0.176153
-0.0226971 0.156743 -0.179164
-0.0219213 0.160036 -0.182928
0.00586887 0.166622 -0.190456
0.00714471 0.165963 -0.189703
0.00837673 0.164646 -0.188198
0.00966546 0.164646 -0.188198
0.0104722 0.157401 -0.179917
0.0113125 0.152133 -0.173895
0.0123409 0.150157 -0.171636
0.0135162 0.150157 -0.171636
0.0147559 0.150816 -0.172389
0.0167715 0.158719 -0.181422
-0.0263287 0.148602 -0.171636
-0.0251586 0.148602 -0.171636
-0.0241997 0.149911 -0.173148
-0.0231198 0.150566 -0.173904
-0.0225064 0.154494 -0.178441
-0.0223723 0.162349 -0.187514
0.00470901 0.17086 -0.197343
0.00591526 0.166932 -0.192806
0.00705965 0.163004 -0.18827
0.00834323 0.163004 -0.18827
0.00966546 0.163659 -0.189026
0.0104284 0.155803 -0.179953
0.0112145 0.149911 -0.173148
0.012395 0.149911 -0.173148
0.0135162 0.149257 -0.172392
0.0146915 0.149257 -0.172392
0.0161452 0.151875 -0.175416
-0.0263287 0.147706 -0.172388
-0.0250477 0.147055 -0.171628
-0.0239884 0.147706 -0.172388
-0.0227177 0.147055 -0.171628
-0.0218388 0.149007 -0.173907
-0.0214702 0.154863 -0.180741
0.00201042 0.169178 -0.197449
0.00328626 0.165925 -0.193651
0.00456468 0.164623 -0.192133
0.00577608 0.162021 -0.189095
0.00700295 0.160719 -0.187576
0.00834323 0.162021 -0.189095
0.00958814 0.16137 -0.188336
0.0106475 0.158117 -0.184538
0.0112635 0.149658 -0.174666
0.0123409 0.148356 -0.173147
0.0134569 0.147706 -0.172388
0.0146271 0.147706 -0.172388
0.0157972 0.147706 -0.172388
-0.0264447 0.147456 -0.173903
-0.0250477 0.146162 -0.172377
-0.023777 0.145516 -0.171614
-0.0226172 0.145516 -0.171614
-0.0215527 0.146162 -0.172377
-0.0209289 0.150043 -0.176954
-0.0210088 0.159744 -0.188395
-0.0144518 0.172679 -0.203649
-0.00329914 0.165565 -0.195259
-0.00192536 0.161037 -0.18992
-0.000639209 0.160391 -0.189157
0.000639209 0.160391 -0.189157
0.00191763 0.160391 -0.189157
0.00320893 0.161037 -0.18992
0.00447446 0.160391 -0.189157
0.00575288 0.160391 -0.189157
0.0069746 0.159097 -0.187632
0.00824271 0.159097 -0.187632
0.00947215 0.15845 -0.186869
0.0107351 0.15845 -0.186869
0.0112635 0.148749 -0.175428
0.0122867 0.146809 -0.17314
0.0133976 0.146162 -0.172377
0.0145626 0.146162 -0.172377
0.0157972 0.146809 -0.17314
-0.0290737 0.154269 -0.183851
-0.0266767 0.147841 -0.17619
-0.0251586 0.145913 -0.173892
-0.0235657 0.143342 -0.170828
-0.0224161 0.143342 -0.170828
-0.0214573 0.144627 -0.17236
-0.0207485 0.147841 -0.17619
-0.0207537 0.15684 -0.186915
-0.0198155 0.159411 -0.189979
-0.0189108 0.162625 -0.193809
-0.0176762 0.163268 -0.194575
-0.0161091 0.160697 -0.191511
-0.0147611 0.160054 -0.190745
-0.0134775 0.160054 -0.190745
-0.012145 0.159411 -0.189979
-0.0108666 0.159411 -0.189979
-0.00958814 0.159411 -0.189979
-0.00824271 0.158126 -0.188447
-0.00700295 0.158769 -0.189213
-0.00570649 0.158126 -0.188447
-0.00447446 0.159411 -0.189979
-0.00319605 0.159411 -0.189979
-0.0019099 0.158769 -0.189213
-0.000636632 0.158769 -0.189213
0.000639209 0.159411 -0.189979
0.00192536 0.160054 -0.190745
0.00318316 0.158769 -0.189213
0.00443838 0.158126 -0.188447
0.00572969 0.158769 -0.189213
0.00700295 0.158769 -0.189213
0.00817569 0.15684 -0.186915
0.00943349 0.15684 -0.186915
0.0103846 0.152341 -0.181553
0.0112145 0.147198 -0.175424
0.0122867 0.145913 -0.173892
0.0133976 0.14527 -0.173126
0.0144982 0.144627 -0.17236
0.0157972 0.145913 -0.173892
-0.0296794 0.156515 -0.188493
-0.0278365 0.153321 -0.184646
-0.0252694 0.145655 -0.175414
-0.0235657 0.142461 -0.171567
-0.0224161 0.142461 -0.171567
-0.0214573 0.143739 -0.173106
-0.0202975 0.143739 -0.173106
-0.0205836 0.154599 -0.186185
-0.0196557 0.157154 -0.189262
-0.0184623 0.157793 -0.190031
-0.0173282 0.159071 -0.19157
-0.0160447 0.159071 -0.19157
-0.0147611 0.159071 -0.19157
-0.0133693 0.157793 -0.190031
-0.012047 0.157154 -0.189262
-0.0108227 0.157793 -0.190031
-0.00954948 0.157793 -0.190031
-0.00827621 0.157793 -0.190031
-0.00700295 0.157793 -0.190031
-0.00570649 0.157154 -0.189262
-0.00449251 0.159071 -0.19157
-0.00320893 0.159071 -0.19157
-0.0019099 0.157793 -0.190031
-0.000636632 0.157793 -0.190031
0.000641787 0.159071 -0.19157
0.0019099 0.157793 -0.190031
0.00318316 0.157793 -0.190031
0.00443838 0.157154 -0.189262
0.00572969 0.157793 -0.190031
0.0069746 0.157154 -0.189262
0.0082092 0.156515 -0.188493
0.00935617 0.154599 -0.186185
0.0104284 0.152044 -0.183107
0.0112635 0.146933 -0.176952
0.0122867 0.145016 -0.174644
0.0133383 0.143739 -0.173106
0.0144982 0.143739 -0.173106
0.0157276 0.144378 -0.173875
-0.0299217 0.156818 -0.19085
-0.0273726 0.149834 -0.18235
-0.0253802 0.14539 -0.176942
-0.0235657 0.14158 -0.172306
-0.0225167 0.142215 -0.173078
-0.0212666 0.14158 -0.172306
-0.020117 0.14158 -0.172306
-0.019648 0.14666 -0.178487
-0.0194959 0.154913 -0.188532
-0.0184623 0.156818 -0.19085
-0.0171195 0.156183 -0.190077
-0.0159158 0.156818 -0.19085
-0.0146425 0.156818 -0.19085
-0.0133151 0.156183 -0.190077
-0.012047 0.156183 -0.190077
-0.0108227 0.156818 -0.19085
-0.00951081 0.156183 -0.190077
-0.00830972 0.157453 -0.191623
-0.0070313 0.157453 -0.191623
-0.00575288 0.157453 -0.191623
-0.00449251 0.158088 -0.192395
-0.00319605 0.157453 -0.191623
-0.00191763 0.157453 -0.191623
-0.000639209 0.157453 -0.191623
0.000639209 0.157453 -0.191623
0.00189443 0.155548 -0.189305
0.0031445 0.154913 -0.188532
0.0044023 0.154913 -0.188532
0.00570649 0.156183 -0.190077
0.00694625 0.155548 -0.189305
0.0082092 0.155548 -0.189305
0.00927884 0.152374 -0.185441
0.0105598 0.153008 -0.186214
0.0112145 0.14539 -0.176942
0.0123409 0.144755 -0.176169
0.0133976 0.143485 -0.174624
0.0145626 0.143485 -0.174624
0.0155885 0.142215 -0.173078
-0.030164 0.157104 -0.19322
-0.0286484 0.155842 -0.191668
-0.0270427 0.15395 -0.18934
-0.023777 0.141962 -0.174597
-0.0225167 0.141331 -0.173821
-0.0212666 0.1407 -0.173045
-0.020117 0.1407 -0.173045
-0.0191376 0.141962 -0.174597
-0.019416 0.153319 -0.188564
-0.0183128 0.154581 -0.190116
-0.0170499 0.154581 -0.190116
-0.0157869 0.154581 -0.190116
-0.0145832 0.155211 -0.190892
-0.0133151 0.155211 -0.190892
-0.0119981 0.154581 -0.190116
-0.0107351 0.154581 -0.190116
-0.00951081 0.155211 -0.190892
-0.00830972 0.156473 -0.192444
-0.0070313 0.156473 -0.192444
-0.00577608 0.157104 -0.19322
-0.00445642 0.155842 -0.191668
-0.00318316 0.155842 -0.191668
-0.0019099 0.155842 -0.191668
-0.000634054 0.155211 -0.190892
0.000634054 0.155211 -0.190892
0.00189443 0.154581 -0.190116
0.00313161 0.153319 -0.188564
0.00436621 0.152688 -0.187788
0.0056137 0.152688 -0.187788
0.00691789 0.15395 -0.18934
0.00817569 0.15395 -0.18934
0.00931751 0.152057 -0.187012
0.0104284 0.150164 -0.184684
0.0111655 0.143855 -0.176925
0.0123409 0.143855 -0.176925
0.0135162 0.143855 -0.176925
0.0144982 0.141962 -0.174597
0.0157276 0.142593 -0.175373
0.0182381 0.15395 -0.18934
-0.0317388 0.164272 -0.204176
-0.0296923 0.16051 -0.1995
-0.027486 0.155494 -0.193266
-0.023777 0.141073 -0.175342
-0.0226172 0.141073 -0.175342
-0.0212666 0.139819 -0.173784
-0.0202073 0.140446 -0.174563
-0.0190526 0.140446 -0.174563
-0.0192562 0.151105 -0.187811
-0.0181633 0.152359 -0.18937
-0.0169107 0.152359 -0.18937
-0.0157225 0.152986 -0.190149
-0.0144647 0.152986 -0.190149
-0.013261 0.153613 -0.190928
-0.0119981 0.153613 -0.190928
-0.0107351 0.153613 -0.190928
-0.00951081 0.15424 -0.191707
-0.0082092 0.153613 -0.190928
-0.00691789 0.152986 -0.190149
-0.0056137 0.151732 -0.18859
-0.00443838 0.15424 -0.191707
-0.0031445 0.152986 -0.190149
-0.00187897 0.152359 -0.18937
-0.000628899 0.152986 -0.190149
0.000628899 0.152986 -0.190149
0.0018867 0.152986 -0.190149
0.00313161 0.152359 -0.18937
0.00433013 0.150478 -0.187032
0.00552091 0.149224 -0.185473
0.00671943 0.148597 -0.184694
0.00814219 0.152359 -0.18937
0.00924018 0.149851 -0.186252
0.0102969 0.147343 -0.183135
0.0110676 0.1417 -0.176121
0.0122326 0.1417 -0.176121
0.0133976 0.1417 -0.176121
0.0144982 0.141073 -0.175342
0.015658 0.141073 -0.175342
-0.0294603 0.158253 -0.198783
-0.0277077 0.155761 -0.195653
-0.0238827 0.140808 -0.17687
-0.0225167 0.139562 -0.175305
-0.0212666 0.138939 -0.174522
-0.020117 0.138939 -0.174522
-0.0189675 0.138939 -0.174522
-0.0190165 0.148284 -0.186262
-0.0180138 0.150153 -0.188609
-0.0169107 0.151399 -0.190175
-0.0155936 0.150776 -0.189392
-0.0144647 0.152023 -0.190957
-0.0132069 0.152023 -0.190957
-0.0119001 0.151399 -0.190175
-0.0106037 0.150776 -0.189392
-0.00935617 0.150776 -0.189392
-0.00814219 0.151399 -0.190175
-0.00683284 0.150153 -0.188609
-0.0055905 0.150153 -0.188609
-0.00434817 0.150153 -0.188609
-0.00311872 0.150776 -0.189392
-0.00187123 0.150776 -0.189392
-0.000623744 0.150776 -0.189392
0.000631477 0.152646 -0.19174
0.0018635 0.150153 -0.188609
0.00309295 0.14953 -0.187827
0.00429404 0.148284 -0.186262
0.00549771 0.147661 -0.185479
0.00683284 0.150153 -0.188609
0.00804166 0.14953 -0.187827
0.00920152 0.148284 -0.186262
0.0101217 0.143923 -0.180783
0.0110186 0.140185 -0.176088
0.0121785 0.140185 -0.176088
0.0132791 0.139562 -0.175305
0.0144338 0.139562 -0.175305
0.0161452 0.144546 -0.181566
-0.0313754 0.160345 -0.203555
-0.0300403 0.160345 -0.203555
-0.0277077 0.154774 -0.196481
-0.023777 0.139296 -0.176833
-0.0225167 0.138677 -0.176047
-0.0211712 0.137439 -0.174475
-0.0202073 0.138677 -0.176047
-0.0190526 0.138677 -0.176047
-0.0186969 0.144868 -0.183907
-0.0178644 0.147964 -0.187836
-0.0166323 0.147964 -0.187836
-0.0155292 0.149202 -0.189408
-0.0143461 0.149821 -0.190194
-0.0129904 0.148583 -0.188622
-0.0117532 0.148583 -0.188622
-0.0105598 0.149202 -0.189408
-0.00927884 0.148583 -0.188622
-0.00807517 0.149202 -0.189408
-0.00680449 0.148583 -0.188622
-0.00554411 0.147964 -0.187836
-0.00431208 0.147964 -0.187836
-0.00308006 0.147964 -0.187836
-0.00185577 0.148583 -0.188622
-0.00061859 0.148583 -0.188622
0.000616012 0.147964 -0.187836
0.00184804 0.147964 -0.187836
0.00306717 0.147344 -0.18705
0.00429404 0.147344 -0.18705
0.00549771 0.146725 -0.186264
0.00677613 0.147964 -0.187836
0.00807517 0.149202 -0.189408
0.00924018 0.147964 -0.187836
0.0100779 0.142392 -0.180763
0.0110676 0.139915 -0.177619
0.0122326 0.139915 -0.177619
0.0132791 0.138677 -0.176047
0.0145626 0.139915 -0.177619
0.0155885 0.138677 -0.176047
0.0166684 0.138058 -0.175261
0.0186969 0.144868 -0.183907
0.0219445 0.159726 -0.202769
-0.0312542 0.158707 -0.203624
-0.0296923 0.157477 -0.202045
-0.0275968 0.153171 -0.196521
-0.0238827 0.139023 -0.178368
-0.0225167 0.137793 -0.17679
-0.0212666 0.137177 -0.176
-0.0202073 0.137793 -0.17679
-0.0191376 0.138408 -0.177579
-0.0185371 0.142714 -0.183103
-0.0175654 0.144559 -0.185471
-0.0164931 0.145789 -0.18705
-0.0154003 0.14702 -0.188628
-0.0141683 0.14702 -0.188628
-0.0128821 0.146405 -0.187839
-0.0116553 0.146405 -0.187839
-0.0104284 0.146405 -0.187839
-0.00924018 0.14702 -0.188628
-0.00800816 0.14702 -0.188628
-0.00680449 0.147635 -0.189417
-0.00552091 0.146405 -0.187839
-0.00429404 0.146405 -0.187839
-0.00305429 0.145789 -0.18705
-0.00182484 0.145174 -0.18626
-0.000605702 0.144559 -0.185471
0.000605702 0.144559 -0.185471
0.00183257 0.145789 -0.18705
0.00306717 0.146405 -0.187839
0.004276 0.145789 -0.18705
0.00547452 0.145174 -0.18626
0.00666273 0.144559 -0.185471
0.00800816 0.14702 -0.188628
0.00924018 0.14702 -0.188628
0.0100779 0.141483 -0.181525
0.0110676 0.139023 -0.178368
0.0121785 0.138408 -0.177579
0.0134569 0.139638 -0.179157
0.0143693 0.137177 -0.176
0.0154493 0.136562 -0.175211
0.0177381 0.136562 -0.175211
0.0204985 0.14825 -0.190207
-0.0312542 0.157689 -0.204479
-0.0295763 0.155855 -0.202101
-0.0278185 0.15341 -0.198931
-0.0236714 0.136908 -0.177532
-0.0225167 0.136908 -0.177532
-0.0212666 0.136297 -0.176739
-0.0202073 0.136908 -0.177532
-0.0190526 0.136908 -0.177532
-0.0182974 0.139964 -0.181495
-0.0174906 0.14302 -0.185457
-0.0164236 0.144242 -0.187042
-0.0152714 0.144854 -0.187835
-0.014109 0.145465 -0.188628
-0.012828 0.144854 -0.187835
-0.0115573 0.144242 -0.187042
-0.0103846 0.144854 -0.187835
-0.00920152 0.145465 -0.188628
-0.00794114 0.144854 -0.187835
-0.00674778 0.145465 -0.188628
-0.00540493 0.142409 -0.184665
-0.00422187 0.14302 -0.185457
-0.00302851 0.143631 -0.18625
-0.00180937 0.14302 -0.185457
-0.000605702 0.143631 -0.18625
0.000605702 0.143631 -0.18625
0.00182484 0.144242 -0.187042
0.0030414 0.144242 -0.187042
0.00425796 0.144242 -0.187042
0.00542812 0.14302 -0.185457
0.00663437 0.14302 -0.185457
0.00784062 0.14302 -0.185457
0.00904687 0.14302 -0.185457
0.0102093 0.142409 -0.184665
0.0110186 0.137519 -0.178324
0.0122326 0.13813 -0.179117
0.0132791 0.136908 -0.177532
0.0142404 0.135074 -0.175154
0.0166684 0.136297 -0.176739
0.0177381 0.135686 -0.175947
0.0204135 0.146687 -0.190213
-0.0294603 0.154241 -0.20215
-0.0271535 0.148776 -0.194987
-0.0236714 0.136023 -0.178274
-0.0224161 0.135416 -0.177478
-0.0212666 0.135416 -0.177478
-0.0202073 0.136023 -0.178274
-0.0190526 0.136023 -0.178274
-0.0180577 0.137238 -0.179866
-0.0172664 0.140274 -0.183845
-0.0160756 0.140274 -0.183845
-0.0151426 0.142703 -0.187029
-0.0138126 0.141489 -0.185437
-0.0126656 0.142096 -0.186233
-0.0115083 0.142703 -0.187029
-0.0102531 0.142096 -0.186233
-0.00908553 0.142703 -0.187029
-0.00790764 0.14331 -0.187824
-0.00669108 0.14331 -0.187824
-0.00540493 0.141489 -0.185437
-0.00420383 0.141489 -0.185437
-0.00300274 0.141489 -0.185437
-0.00180164 0.141489 -0.185437
-0.000603125 0.142096 -0.186233
0.00059797 0.140881 -0.184641
0.00180164 0.141489 -0.185437
0.00300274 0.141489 -0.185437
0.00418579 0.140881 -0.184641
0.00535853 0.140274 -0.183845
0.00657767 0.140881 -0.184641
0.00780712 0.141489 -0.185437
0.00896955 0.140881 -0.184641
0.010034 0.13906 -0.182253
0.0110676 0.137238 -0.179866
0.0120702 0.135416 -0.177478
0.0131605 0.134809 -0.176682
0.0153797 0.134202 -0.175886
0.0165937 0.134809 -0.176682
0.017818 0.135416 -0.177478
-0.0291124 0.151428 -0.200594
-0.0270427 0.147205 -0.195
-0.023777 0.135742 -0.179815
-0.0224161 0.134536 -0.178217
-0.0211712 0.133932 -0.177418
-0.0202073 0.135139 -0.179016
-0.0189675 0.134536 -0.178217
-0.017818 0.134536 -0.178217
-0.0168926 0.136346 -0.180615
-0.0157972 0.136949 -0.181414
-0.0146915 0.137552 -0.182213
-0.013694 0.139362 -0.18461
-0.0125574 0.139965 -0.18541
-0.0113614 0.139965 -0.18541
-0.0101217 0.139362 -0.18461
-0.00896955 0.139965 -0.18541
-0.0077066 0.138759 -0.183811
-0.00657767 0.139965 -0.18541
-0.00535853 0.139362 -0.18461
-0.00418579 0.139965 -0.18541
-0.00298985 0.139965 -0.18541
-0.00178618 0.139362 -0.18461
-0.000595392 0.139362 -0.18461
0.000592815 0.138759 -0.183811
0.00178618 0.139362 -0.18461
0.00296408 0.138759 -0.183811
0.00414971 0.138759 -0.183811
0.00533534 0.138759 -0.183811
0.00646426 0.137552 -0.182213
0.00767309 0.138155 -0.183012
0.00873758 0.136346 -0.180615
0.00990259 0.136346 -0.180615
0.0110186 0.135742 -0.179815
0.0120161 0.133932 -0.177418
0.0131012 0.133329 -0.176619
0.0142404 0.133329 -0.176619
0.0153797 0.133329 -0.176619
0.0168179 0.135742 -0.179815
0.0179778 0.135742 -0.179815
-0.0292284 0.151036 -0.202228
-0.0259344 0.140248 -0.187783
-0.0235657 0.133655 -0.178956
-0.0223156 0.133056 -0.178153
-0.0199366 0.132456 -0.177351
-0.0188824 0.133056 -0.178153
-0.017818 0.133655 -0.178956
-0.0167432 0.134254 -0.179758
-0.015658 0.134854 -0.180561
-0.0144982 0.134854 -0.180561
-0.0133383 0.134854 -0.180561
-0.0124491 0.13785 -0.184573
-0.0112635 0.13785 -0.184573
-0.010034 0.137251 -0.183771
-0.00877624 0.136052 -0.182166
-0.00763958 0.136652 -0.182968
-0.00652097 0.13785 -0.184573
-0.00531214 0.137251 -0.183771
-0.00413166 0.137251 -0.183771
-0.00295119 0.137251 -0.183771
-0.00177845 0.13785 -0.184573
-0.000590238 0.137251 -0.183771
0.000592815 0.13785 -0.184573
0.00176298 0.136652 -0.182968
0.00295119 0.137251 -0.183771
0.00411362 0.136652 -0.182968
0.00521935 0.134854 -0.180561
0.0063792 0.134854 -0.180561
0.00743854 0.133056 -0.178153
0.00862159 0.133655 -0.178956
0.00981495 0.134254 -0.179758
0.0109207 0.133655 -0.178956
0.0121244 0.134254 -0.179758
0.0132791 0.134254 -0.179758
0.0143049 0.133056 -0.178153
0.0157972 0.136052 -0.182166
0.0172664 0.13845 -0.185376
-0.0291124 0.149446 -0.202257
-0.0263777 0.141705 -0.191782
-0.0223156 0.132179 -0.178889
-0.0199366 0.131584 -0.178083
-0.0187974 0.131584 -0.178083
-0.0176582 0.131584 -0.178083
-0.0167432 0.13337 -0.180501
-0.0155189 0.132774 -0.179695
-0.0144338 0.13337 -0.180501
-0.0132791 0.13337 -0.180501
-0.0121244 0.13337 -0.180501
-0.0109207 0.132774 -0.179695
-0.00981495 0.13337 -0.180501
-0.00869892 0.133965 -0.181306
-0.00757257 0.134561 -0.182112
-0.00643591 0.135156 -0.182918
-0.00528894 0.135751 -0.183724
-0.00411362 0.135751 -0.183724
-0.0029383 0.135751 -0.183724
-0.00177071 0.136347 -0.18453
-0.000592815 0.136942 -0.185336
0.000590238 0.136347 -0.18453
0.00173978 0.133965 -0.181306
0.00291253 0.134561 -0.182112
0.00404145 0.13337 -0.180501
0.00519615 0.13337 -0.180501
0.00629415 0.132179 -0.178889
0.00743854 0.132179 -0.178889
0.00862159 0.132774 -0.179695
0.00981495 0.13337 -0.180501
0.0109697 0.13337 -0.180501
0.0122326 0.134561 -0.182112
0.0133976 0.134561 -0.182112
0.0146271 0.135156 -0.182918
0.016354 0.139919 -0.189365
-0.0273752 0.146089 -0.199853
-0.02346 0.131302 -0.179625
-0.0222151 0.130711 -0.178816
-0.0199366 0.130711 -0.178816
-0.0177381 0.131302 -0.179625
-0.0165937 0.131302 -0.179625
-0.0155189 0.131894 -0.180434
-0.0143693 0.131894 -0.180434
-0.0131605 0.131302 -0.179625
-0.0120161 0.131302 -0.179625
-0.0109207 0.131894 -0.180434
-0.00972732 0.131302 -0.179625
-0.00858293 0.131302 -0.179625
-0.00753906 0.133077 -0.182052
-0.00635085 0.132485 -0.181243
-0.00524255 0.133668 -0.182861
-0.00405949 0.133077 -0.182052
-0.00287386 0.131894 -0.180434
-0.00172432 0.131894 -0.180434
-0.000569618 0.130711 -0.178816
0.000569618 0.130711 -0.178816
0.00170885 0.130711 -0.178816
0.00288675 0.132485 -0.181243
0.00404145 0.132485 -0.181243
0.00521935 0.133077 -0.182052
0.00635085 0.132485 -0.181243
0.00763958 0.134851 -0.184479
0.0088149 0.134851 -0.184479
0.0099464 0.13426 -0.18367
0.0110676 0.133668 -0.182861
0.0121785 0.133077 -0.182052
0.0134569 0.13426 -0.18367
0.0145626 0.133668 -0.182861
0.0164931 0.140174 -0.191761
-0.0293443 0.148638 -0.205546
-0.0262669 0.139238 -0.192547
-0.0236714 0.131601 -0.181985
-0.0224161 0.131013 -0.181173
-0.021362 0.131601 -0.181985
-0.0202073 0.131601 -0.181985
-0.0189675 0.131013 -0.181173
-0.0177381 0.130426 -0.18036
-0.0165189 0.129838 -0.179548
-0.0153797 0.129838 -0.179548
-0.0142404 0.129838 -0.179548
-0.011962 0.129838 -0.179548
-0.0096835 0.129838 -0.179548
-0.00854427 0.129838 -0.179548
-0.00747205 0.131013 -0.181173
-0.00629415 0.130426 -0.18036
-0.00517296 0.131013 -0.181173
-0.00402341 0.131013 -0.181173
-0.00286098 0.130426 -0.18036
-0.00171659 0.130426 -0.18036
-0.000574773 0.131013 -0.181173
0.00288675 0.131601 -0.181985
0.00407754 0.132776 -0.18361
0.00519615 0.131601 -0.181985
0.00640756 0.132776 -0.18361
0.00757257 0.132776 -0.18361
0.00896955 0.136301 -0.188485
0.0101655 0.136301 -0.188485
0.0110676 0.132776 -0.18361
0.0122326 0.132776 -0.18361
0.0133976 0.132776 -0.18361
0.0149492 0.136301 -0.188485
0.0159364 0.134538 -0.186047
0.0186118 0.146288 -0.202296
-0.0722306 0.144721 -0.202305
-0.0259344 0.136552 -0.190885
-0.0239884 0.132467 -0.185175
-0.0228182 0.132467 -0.185175
-0.0215527 0.131883 -0.184359
-0.0202073 0.130716 -0.182727
-0.0190526 0.130716 -0.182727
-0.0177381 0.129549 -0.181096
-0.0166684 0.130133 -0.181912
-0.0157276 0.131883 -0.184359
-0.0143049 0.129549 -0.181096
-0.0131012 0.128965 -0.18028
-0.011962 0.128965 -0.18028
-0.00972732 0.129549 -0.181096
-0.00862159 0.130133 -0.181912
-0.00743854 0.129549 -0.181096
-0.00629415 0.129549 -0.181096
-0.00517296 0.130133 -0.181912
-0.00398733 0.128965 -0.18028
-0.00286098 0.129549 -0.181096
-0.00172432 0.130133 -0.181912
-0.00057735 0.130716 -0.182727
0.000572195 0.129549 -0.181096
0.00170885 0.128965 -0.18028
0.00289964 0.1313 -0.183543
0.00411362 0.13305 -0.18599
0.00519615 0.130716 -0.182727
0.00635085 0.130716 -0.182727
0.00834323 0.145305 -0.203121
0.0112145 0.133634 -0.186806
0.0123409 0.13305 -0.18599
0.0136347 0.134217 -0.187622
0.0146915 0.13305 -0.18599
0.0158668 0.13305 -0.18599
0.0177149 0.138302 -0.193332
-0.0291124 0.145481 -0.205584
-0.0257127 0.134468 -0.190022
-0.0240941 0.13215 -0.186746
-0.0229187 0.13215 -0.186746
-0.0217434 0.13215 -0.186746
-0.0203877 0.130991 -0.185108
-0.019648 0.133889 -0.189203
-0.0190165 0.137946 -0.194936
-0.0175654 0.136207 -0.192479
-0.0159364 0.13273 -0.187565
-0.0144982 0.130411 -0.184289
-0.0133976 0.130991 -0.185108
-0.0124491 0.133309 -0.188384
-0.0109697 0.129832 -0.18347
-0.00977114 0.129252 -0.182651
-0.00858293 0.128672 -0.181831
-0.00753906 0.130411 -0.184289
-0.00640756 0.130991 -0.185108
-0.00521935 0.130411 -0.184289
-0.00404145 0.129832 -0.18347
-0.00287386 0.129252 -0.182651
-0.00173978 0.130411 -0.184289
-0.000590238 0.13273 -0.187565
0.000595392 0.133889 -0.189203
0.00180164 0.135048 -0.190841
0.00309295 0.139105 -0.196575
0.0044023 0.141424 -0.199851
0.00579928 0.144901 -0.204765
0.0108227 0.143163 -0.202308
0.0114104 0.135048 -0.190841
0.0124491 0.133309 -0.188384
0.0136347 0.133309 -0.188384
0.0147559 0.13273 -0.187565
0.0158668 0.13215 -0.186746
0.0174159 0.135048 -0.190841
0.0683954 0.143742 -0.203127
-0.0285324 0.141611 -0.202304
-0.025491 0.132401 -0.189146
-0.0239884 0.130674 -0.186679
-0.0228182 0.130674 -0.186679
-0.0217434 0.13125 -0.187501
-0.0203877 0.130098 -0.185857
-0.0199882 0.135279 -0.193258
-0.0194959 0.14046 -0.200659
-0.0157225 0.14046 -0.200659
-0.0140497 0.136431 -0.194903
-0.0127197 0.135279 -0.193258
-0.0114594 0.134704 -0.192436
-0.0105598 0.138733 -0.198192
-0.00954948 0.142187 -0.203126
-0.00797465 0.137006 -0.195725
-0.00657767 0.133552 -0.190791
-0.00542812 0.134704 -0.192436
-0.00423992 0.135279 -0.193258
-0.0030414 0.135855 -0.19408
-0.00187123 0.139309 -0.199015
0.00966546 0.143914 -0.205594
0.0109542 0.143914 -0.205594
0.0115573 0.135855 -0.19408
0.0125032 0.132977 -0.189968
0.0135755 0.131825 -0.188324
0.0146915 0.13125 -0.187501
0.016006 0.132401 -0.189146
0.0172664 0.132977 -0.189968
-0.0768056 0.132064 -0.190734
-0.030164 0.142355 -0.205596
-0.0283005 0.139497 -0.201468
-0.0253802 0.130921 -0.189082
-0.0239884 0.129778 -0.187431
-0.0228182 0.129778 -0.187431
-0.0216481 0.129778 -0.187431
-0.0204779 0.129778 -0.187431
-0.019733 0.132636 -0.19156
0.0096268 0.142355 -0.205596
0.0116063 0.135495 -0.195688
0.0125032 0.132064 -0.190734
0.0136347 0.131493 -0.189908
0.0147559 0.130921 -0.189082
0.0159364 0.130921 -0.189082
0.0171916 0.131493 -0.189908
0.0299217 0.141212 -0.203945
0.0305635 0.138353 -0.199816
0.0596862 0.142355 -0.205596
-0.0361411 0.139669 -0.203934
-0.0277205 0.135694 -0.198131
-0.0251586 0.128881 -0.188183
-0.0238827 0.128313 -0.187354
-0.0227177 0.128313 -0.187354
-0.0216481 0.128881 -0.188183
-0.0204779 0.128881 -0.188183
-0.0119491 0.138533 -0.202276
-0.0108227 0.140236 -0.204763
-0.00958814 0.140804 -0.205592
0.0108666 0.140804 -0.205592
0.0114594 0.132856 -0.193986
0.0126115 0.132288 -0.193157
0.0135755 0.130017 -0.189841
0.0146915 0.129449 -0.189012
0.0158668 0.129449 -0.189012
0.0171169 0.130017 -0.189841
0.0192562 0.13683 -0.199789
0.0295583 0.138533 -0.202276
0.0308161 0.138533 -0.202276
0.0584876 0.138533 -0.202276
-0.0719394 0.139261 -0.205582
-0.029316 0.136442 -0.20142
-0.0276046 0.134187 -0.198091
-0.0253802 0.129112 -0.1906
-0.023777 0.126857 -0.187271
-0.0227177 0.127421 -0.188103
-0.0215527 0.127421 -0.188103
-0.0204779 0.127985 -0.188935
0.00445642 0.139261 -0.205582
0.00572969 0.139261 -0.205582
0.0108227 0.139261 -0.205582
0.0114594 0.131931 -0.194762
0.0125032 0.13024 -0.192265
0.0134569 0.127985 -0.188935
0.0145626 0.127421 -0.188103
0.015658 0.126857 -0.187271
0.0168179 0.126857 -0.187271
0.0183773 0.129676 -0.191432
0.0194778 0.129112 -0.1906
0.0221017 0.138133 -0.203917
0.0331951 0.137006 -0.202252
0.0597454 0.13757 -0.203085
-0.0729162 0.137726 -0.205565
-0.0301846 0.133807 -0.199715
-0.0279834 0.129328 -0.19303
-0.0258648 0.124849 -0.186345
-0.0247152 0.124849 -0.186345
-0.0235657 0.124849 -0.186345
-0.0226172 0.125969 -0.188016
-0.0214573 0.125969 -0.188016
-0.0203877 0.126529 -0.188852
-0.0193077 0.127088 -0.189688
-0.0190964 0.133807 -0.199715
0.0044023 0.136606 -0.203893
0.00549771 0.132687 -0.198044
0.00935617 0.135486 -0.202222
0.0102531 0.131007 -0.195537
0.0112145 0.128208 -0.191359
0.0122326 0.126529 -0.188852
0.0133976 0.126529 -0.188852
0.0144982 0.125969 -0.188016
0.015658 0.125969 -0.188016
0.0168179 0.125969 -0.188016
0.0178979 0.125409 -0.187181
0.0190526 0.125409 -0.187181
0.0205681 0.127648 -0.190523
0.0228878 0.134367 -0.200551
0.0312852 0.133247 -0.19888
0.0610032 0.136606 -0.203893
0.0632585 0.136046 -0.203058
-0.0290479 0.12786 -0.192957
-0.0268932 0.123412 -0.186245
-0.0258648 0.123968 -0.187084
-0.0246044 0.123412 -0.186245
-0.02346 0.123412 -0.186245
-0.0223156 0.123412 -0.186245
-0.021362 0.124524 -0.187923
-0.020117 0.123968 -0.187084
-0.0190526 0.124524 -0.187923
-0.0178979 0.124524 -0.187923
-0.0169674 0.126192 -0.19044
-0.016006 0.12786 -0.192957
-0.015207 0.131195 -0.19799
-0.0130986 0.134531 -0.203024
-0.0119981 0.136198 -0.205541
-0.000628899 0.135643 -0.204702
0.000616012 0.132863 -0.200507
0.00184804 0.132863 -0.200507
0.00420383 0.129527 -0.195473
0.00540493 0.129527 -0.195473
0.00657767 0.128972 -0.194634
0.0077066 0.12786 -0.192957
0.00873758 0.125636 -0.189601
0.00985877 0.12508 -0.188762
0.0109697 0.124524 -0.187923
0.0121244 0.124524 -0.187923
0.0132791 0.124524 -0.187923
0.0144338 0.124524 -0.187923
0.0155885 0.124524 -0.187923
0.0167432 0.124524 -0.187923
0.0178979 0.124524 -0.187923
0.0190526 0.124524 -0.187923
0.0202073 0.124524 -0.187923
0.0215527 0.125636 -0.189601
0.0609852 0.132863 -0.200507
0.0622172 0.132863 -0.200507
-0.0739189 0.133023 -0.202984
-0.0652225 0.133023 -0.202984
-0.0284165 0.124192 -0.189507
-0.0271355 0.12364 -0.188665
-0.0257488 0.122536 -0.186981
-0.0246044 0.122536 -0.186981
-0.0235657 0.123088 -0.187823
-0.0222151 0.121984 -0.186138
-0.0211712 0.122536 -0.186981
-0.020117 0.123088 -0.187823
-0.0189675 0.123088 -0.187823
-0.0177381 0.122536 -0.186981
-0.0167432 0.12364 -0.188665
-0.015658 0.124192 -0.189507
-0.0144338 0.12364 -0.188665
-0.0133383 0.124192 -0.189507
-0.0122326 0.124744 -0.19035
-0.0112145 0.1264 -0.192876
-0.0101655 0.128055 -0.195403
-0.00896955 0.128055 -0.195403
-0.00780712 0.128607 -0.196245
-0.00660602 0.128607 -0.196245
-0.00533534 0.126952 -0.193719
-0.00407754 0.124744 -0.19035
-0.00291253 0.124744 -0.19035
-0.00174752 0.124744 -0.19035
-0.00058766 0.125848 -0.192034
0.00058766 0.125848 -0.192034
0.00176298 0.125848 -0.192034
0.00291253 0.124744 -0.19035
0.00405949 0.124192 -0.189507
0.00521935 0.124192 -0.189507
0.00640756 0.124744 -0.19035
0.00757257 0.124744 -0.19035
0.00866025 0.12364 -0.188665
0.00985877 0.124192 -0.189507
0.0109697 0.12364 -0.188665
0.0121244 0.12364 -0.188665
0.0132791 0.12364 -0.188665
0.0143693 0.123088 -0.187823
0.0155885 0.12364 -0.188665
0.0166684 0.123088 -0.187823
0.0178979 0.12364 -0.188665
0.0191376 0.124192 -0.189507
0.0203877 0.124744 -0.19035
0.0214573 0.124192 -0.189507
0.0233208 0.128055 -0.195403
0.0614955 0.133023 -0.202984
-0.0649519 0.131523 -0.202937
-0.0314166 0.130975 -0.202091
-0.0285428 0.123851 -0.191099
-0.0272566 0.123303 -0.190253
-0.0258648 0.122207 -0.188562
-0.0248261 0.122755 -0.189407
-0.0235657 0.122207 -0.188562
-0.0223156 0.121659 -0.187716
-0.0212666 0.122207 -0.188562
-0.020117 0.122207 -0.188562
-0.0187974 0.121111 -0.186871
-0.0177381 0.121659 -0.187716
-0.0166684 0.122207 -0.188562
-0.015658 0.123303 -0.190253
-0.0144982 0.123303 -0.190253
-0.0132198 0.122207 -0.188562
-0.0122326 0.123851 -0.191099
-0.0110676 0.123851 -0.191099
-0.00985877 0.123303 -0.190253
-0.00869892 0.123303 -0.190253
-0.00743854 0.121659 -0.187716
-0.0063225 0.122207 -0.188562
-0.00521935 0.123303 -0.190253
-0.00407754 0.123851 -0.191099
-0.00289964 0.123303 -0.190253
-0.00173978 0.123303 -0.190253
-0.000574773 0.122207 -0.188562
0.000579928 0.123303 -0.190253
0.00173978 0.123303 -0.190253
0.00289964 0.123303 -0.190253
0.00404145 0.122755 -0.189407
0.00519615 0.122755 -0.189407
0.0063792 0.123303 -0.190253
0.00753906 0.123303 -0.190253
0.00869892 0.123303 -0.190253
0.00985877 0.123303 -0.190253
0.0109697 0.122755 -0.189407
0.0121785 0.123303 -0.190253
0.0134569 0.124399 -0.191944
0.0144338 0.122755 -0.189407
0.0176582 0.121111 -0.186871
0.0190526 0.122755 -0.189407
0.0206583 0.125495 -0.193635
0.0223156 0.128235 -0.197863
0.023924 0.130427 -0.201245
-0.0746328 0.124047 -0.193545
-0.0773237 0.130576 -0.203732
-0.0622172 0.130032 -0.202883
-0.048665 0.130032 -0.202883
-0.0303109 0.130576 -0.203732
-0.0270143 0.121327 -0.189301
-0.0259808 0.121871 -0.19015
-0.0248261 0.121871 -0.19015
-0.02346 0.120782 -0.188452
-0.0225167 0.121871 -0.19015
-0.0212666 0.121327 -0.189301
-0.0200268 0.120782 -0.188452
-0.0190526 0.121871 -0.19015
-0.0178979 0.121871 -0.19015
-0.0166684 0.121327 -0.189301
-0.0155885 0.121871 -0.19015
-0.0144338 0.121871 -0.19015
-0.0132791 0.121871 -0.19015
-0.0121244 0.121871 -0.19015
-0.0110186 0.122415 -0.190999
-0.00977114 0.121327 -0.189301
-0.00866025 0.121871 -0.19015
-0.00750555 0.121871 -0.19015
-0.0063225 0.121327 -0.189301
-0.00519615 0.121871 -0.19015
-0.00404145 0.121871 -0.19015
-0.00288675 0.121871 -0.19015
-0.00173205 0.121871 -0.19015
-0.000579928 0.122415 -0.190999
0.000582505 0.122959 -0.191847
0.00173205 0.121871 -0.19015
0.00287386 0.121327 -0.189301
0.00404145 0.121871 -0.19015
0.00519615 0.121871 -0.19015
0.00635085 0.121871 -0.19015
0.00750555 0.121871 -0.19015
0.00873758 0.122959 -0.191847
0.0099464 0.123503 -0.192696
0.0109697 0.121871 -0.19015
0.0122326 0.122959 -0.191847
0.0134569 0.123503 -0.192696
0.0204779 0.123503 -0.192696
0.0226971 0.129488 -0.202034
0.0238234 0.128943 -0.201185
0.0255735 0.131664 -0.20543
0.0674263 0.130576 -0.203732
-0.0763572 0.128008 -0.20197
-0.0277412 0.123687 -0.195153
-0.0258648 0.120446 -0.19004
-0.0210759 0.119366 -0.188335
-0.0199366 0.119366 -0.188335
-0.0190526 0.120986 -0.190892
-0.0180577 0.122066 -0.192596
-0.0166684 0.120446 -0.19004
-0.0155885 0.120986 -0.190892
-0.0144338 0.120986 -0.190892
-0.0132791 0.120986 -0.190892
-0.0121785 0.121526 -0.191744
-0.0109207 0.120446 -0.19004
-0.00985877 0.121526 -0.191744
-0.00866025 0.120986 -0.190892
-0.00757257 0.122066 -0.192596
-0.0063792 0.121526 -0.191744
-0.00519615 0.120986 -0.190892
-0.00404145 0.120986 -0.190892
-0.00288675 0.120986 -0.190892
-0.00174752 0.122066 -0.192596
-0.000582505 0.122066 -0.192596
0.000582505 0.122066 -0.192596
0.00174752 0.122066 -0.192596
0.00291253 0.122066 -0.192596
0.00414971 0.124227 -0.196005
0.00528894 0.123147 -0.194301
0.00629415 0.119906 -0.189187
0.00750555 0.120986 -0.190892
0.00889223 0.124227 -0.196005
0.010034 0.123687 -0.195153
0.0112145 0.123687 -0.195153
0.0123409 0.123147 -0.194301
0.0134569 0.122606 -0.193448
0.0226971 0.128548 -0.202823
0.0242255 0.130168 -0.205379
0.067233 0.126927 -0.200266
-0.0768056 0.123855 -0.197623
-0.0274989 0.12171 -0.194201
-0.0190526 0.120102 -0.191634
-0.0182175 0.122246 -0.195056
-0.0168926 0.121174 -0.193345
-0.0158668 0.122246 -0.195056
-0.0145626 0.121174 -0.193345
-0.0133383 0.120638 -0.19249
-0.0123409 0.122246 -0.195056
-0.0110186 0.120638 -0.19249
-0.00990259 0.121174 -0.193345
-0.00877624 0.12171 -0.194201
-0.00753906 0.120638 -0.19249
-0.00640756 0.121174 -0.193345
-0.00526574 0.12171 -0.194201
-0.00409558 0.12171 -0.194201
-0.00291253 0.121174 -0.193345
-0.00174752 0.121174 -0.193345
-0.000585083 0.12171 -0.194201
0.000585083 0.12171 -0.194201
0.00175525 0.12171 -0.194201
0.00296408 0.123319 -0.196767
0.00423992 0.125999 -0.201045
0.00674778 0.127608 -0.203611
0.00797465 0.127608 -0.203611
0.00896955 0.124391 -0.198478
0.0101217 0.123855 -0.197623
0.0113125 0.123855 -0.197623
0.0123409 0.122246 -0.195056
0.0131605 0.119029 -0.189923
0.0219342 0.123319 -0.196767
0.0645344 0.125463 -0.200189
-0.0772515 0.125604 -0.202682
-0.0283469 0.124539 -0.200965
-0.0150781 0.124539 -0.200965
-0.0140497 0.126136 -0.203541
-0.0127197 0.125071 -0.201823
-0.0115573 0.125604 -0.202682
-0.0091242 0.125604 -0.202682
-0.00787413 0.125071 -0.201823
-0.00425796 0.125604 -0.202682
-0.00301562 0.124539 -0.200965
-0.00180164 0.124007 -0.200106
-0.000605702 0.125071 -0.201823
0.0018403 0.126668 -0.2044
0.00300274 0.124007 -0.200106
0.0102531 0.124539 -0.200965
0.0114104 0.124007 -0.200106
0.0126115 0.124007 -0.200106
0.0132198 0.118685 -0.191517
0.0220295 0.122943 -0.198388
0.0488531 0.124539 -0.200965
-0.0798032 0.119389 -0.194843
-0.07953 0.122559 -0.200016
-0.0660215 0.124143 -0.202602
-0.0462421 0.123087 -0.200878
-0.0278623 0.121502 -0.198291
-0.00305429 0.1252 -0.204326
-0.00183257 0.1252 -0.204326
0.0115083 0.124143 -0.202602
0.0127197 0.124143 -0.202602
0.0140497 0.1252 -0.204326
0.022411 0.124143 -0.202602
0.0496882 0.125728 -0.205188
0.0575417 0.124143 -0.202602
0.056753 0.119917 -0.195705
-0.0778031 0.122691 -0.202515
-0.0645344 0.122691 -0.202515
-0.0490619 0.123215 -0.203381
-0.0468324 0.120594 -0.199053
-0.0456468 0.120594 -0.199053
-0.0283469 0.122691 -0.202515
-0.00182484 0.12374 -0.204246
0.0153797 0.115875 -0.191264
0.0166684 0.116924 -0.192995
0.0180577 0.118497 -0.195592
0.0195629 0.120594 -0.199053
0.0202975 0.117972 -0.194726
0.0223156 0.122691 -0.202515
0.057052 0.122167 -0.20165
0.055753 0.116924 -0.192995
0.0584335 0.120069 -0.198188
-0.0498454 0.121247 -0.202422
-0.0463478 0.115523 -0.192865
-0.0466288 0.119165 -0.198947
-0.0383216 0.122808 -0.205028
-0.03569 0.118124 -0.197209
-0.028468 0.122287 -0.204159
-0.0262127 0.117604 -0.196341
0.0177149 0.123328 -0.205897
0.0200732 0.122808 -0.205028
0.0211996 0.122287 -0.204159
0.0220295 0.120206 -0.200684
0.0563174 0.119686 -0.199816
0.056753 0.118124 -0.197209
-0.0871438 0.118777 -0.200578
-0.0859582 0.118777 -0.200578
-0.0838344 0.120843 -0.204066
-0.0615909 0.11981 -0.202322
-0.0489897 0.118261 -0.199706
-0.048018 0.118777 -0.200578
-0.0363731 0.115679 -0.195345
-0.0361617 0.118777 -0.200578
-0.0295531 0.120843 -0.204066
-0.0259344 0.120843 -0.204066
-0.0239884 0.117228 -0.197961
-0.0228182 0.117228 -0.197961
0.0272566 0.121359 -0.204938
0.057253 0.118261 -0.199706
0.0731353 0.117228 -0.197961
0.0733235 0.115679 -0.195345
-0.0864092 0.115307 -0.196963
-0.0856283 0.115819 -0.197838
-0.0802517 0.114794 -0.196087
-0.0593537 0.116844 -0.199589
-0.0526961 0.120431 -0.205717
-0.0503893 0.117869 -0.20134
-0.0500594 0.119919 -0.204841
-0.0308908 0.120431 -0.205717
-0.0294268 0.119406 -0.203966
-0.028468 0.120431 -0.205717
-0.0077401 0.118382 -0.202215
0.0252694 0.116844 -0.199589
0.0272566 0.120431 -0.205717
0.0416156 0.119919 -0.204841
0.0419069 0.117357 -0.200464
0.0705656 0.119919 -0.204841
0.0762695 0.119406 -0.203966
-0.0795352 0.112893 -0.195072
-0.0515749 0.116961 -0.202102
-0.0499511 0.115944 -0.200344
-0.0291742 0.117469 -0.202981
0.00784062 0.118995 -0.205617
0.0392031 0.118995 -0.205617
0.0395459 0.116452 -0.201223
0.0696609 0.117469 -0.202981
0.0717719 0.118995 -0.205617
0.0762695 0.118486 -0.204738
-0.0794501 0.11353 -0.198454
-0.0771381 0.117062 -0.204628
-0.0735503 0.117062 -0.204628
-0.0692356 0.112016 -0.195808
-0.0711584 0.117062 -0.204628
-0.0646168 0.116053 -0.202864
-0.0520234 0.117062 -0.204628
-0.0490748 0.113025 -0.197572
-0.0485619 0.114539 -0.200218
-0.0337905 0.116053 -0.202864
-0.0279834 0.116557 -0.203746
-0.0263287 0.114539 -0.200218
-0.0253802 0.115548 -0.201982
-0.019733 0.117062 -0.204628
-0.0161452 0.117062 -0.204628
-0.00900821 0.117566 -0.20551
0.0029383 0.115043 -0.2011
0.00413166 0.115548 -0.201982
0.0150137 0.117566 -0.20551
0.0381644 0.111511 -0.194926
0.0551318 0.116053 -0.202864
0.0681737 0.116053 -0.202864
0.0810739 0.117566 -0.20551
-0.0902883 0.113142 -0.200085
-0.0855097 0.116146 -0.205397
-0.0798934 0.11164 -0.197429
-0.0805094 0.114143 -0.201855
-0.0716481 0.113142 -0.200085
-0.0696248 0.113642 -0.20097
-0.0648978 0.115645 -0.204511
-0.0499511 0.114143 -0.201855
-0.0469741 0.112641 -0.199199
-0.0349761 0.115144 -0.203626
-0.0326151 0.111139 -0.196543
-0.0278623 0.115144 -0.203626
-0.0253802 0.114644 -0.202741
-0.0224161 0.11164 -0.197429
-0.0194778 0.114644 -0.202741
-0.00873758 0.113142 -0.200085
-0.00753906 0.112641 -0.199199
0.00176298 0.114143 -0.201855
0.00289964 0.112641 -0.199199
0.00407754 0.113142 -0.200085
0.00531214 0.114644 -0.202741
0.013694 0.115645 -0.204511
0.0143693 0.11164 -0.197429
0.0155885 0.112141 -0.198314
0.0169674 0.113642 -0.20097
0.0352802 0.116146 -0.205397
0.0532425 0.113642 -0.20097
0.0558277 0.114143 -0.201855
0.0575031 0.115144 -0.203626
0.0593537 0.114143 -0.201855
0.0684701 0.115645 -0.204511
0.0776588 0.115144 -0.203626
0.0785016 0.114644 -0.202741
-0.0333497 0.112746 -0.201722
-0.0265607 0.113739 -0.2035
-0.0123409 0.113243 -0.202611
-0.0077066 0.114236 -0.204388
0.00297696 0.114733 -0.205277
0.013694 0.114733 -0.205277
0.0146271 0.112746 -0.201722
0.0154493 0.110263 -0.197279
0.0167432 0.111256 -0.199056
0.0342157 0.111753 -0.199945
0.0446544 0.114733 -0.205277
-0.0954432 0.113328 -0.20515
-0.0909791 0.109386 -0.198015
-0.0894893 0.110371 -0.199799
-0.0875691 0.110864 -0.200691
-0.060529 0.112342 -0.203366
-0.0586887 0.113328 -0.20515
-0.056503 0.111357 -0.201583
-0.0386825 0.110371 -0.199799
0.0112145 0.112835 -0.204258
0.0206583 0.112835 -0.204258
0.0290479 0.113328 -0.20515
0.037185 0.112835 -0.204258
0.0808625 0.112835 -0.204258
-0.0937833 0.110464 -0.202331
-0.0883475 0.110953 -0.203227
-0.0744782 0.109487 -0.200541
-0.063774 0.110953 -0.203227
-0.0619749 0.111931 -0.205017
-0.0607945 0.111931 -0.205017
-0.0440745 0.111442 -0.204122
-0.0381979 0.111442 -0.204122
-0.0287953 0.111442 -0.204122
-0.0277412 0.111931 -0.205017
-0.0258648 0.108998 -0.199646
-0.0238827 0.110464 -0.202331
-0.0194778 0.111931 -0.205017
-0.00889223 0.11242 -0.205912
0.012395 0.111931 -0.205017
0.0193077 0.110953 -0.203227
0.0206583 0.111931 -0.205017
0.0216481 0.110953 -0.203227
0.0290479 0.11242 -0.205912
0.0489897 0.111931 -0.205017
0.0717306 0.11242 -0.205912
0.0741019 0.11242 -0.205912
0.0733235 0.109487 -0.200541
0.079097 0.109487 -0.200541
-0.0836668 0.110057 -0.203979
-0.0689238 0.107148 -0.198587
-0.068398 0.108118 -0.200384
-0.0626038 0.110057 -0.203979
-0.0506779 0.109572 -0.20308
-0.0488557 0.108118 -0.200384
-0.0477061 0.108118 -0.200384
-0.0448529 0.109572 -0.20308
-0.0385098 0.108118 -0.200384
-0.029182 0.107633 -0.199486
-0.028669 0.110057 -0.203979
-0.0260967 0.109087 -0.202182
-0.0235657 0.108118 -0.200384
-0.0180577 0.109572 -0.20308
-0.0168179 0.109087 -0.202182
0.0182175 0.110542 -0.204877
0.0192227 0.109572 -0.20308
0.0229187 0.110542 -0.204877
0.0240941 0.110542 -0.204877
0.0483479 0.109572 -0.20308
0.0501702 0.111027 -0.205776
0.0584335 0.111027 -0.205776
0.0713311 0.109087 -0.202182
-0.0922626 0.109641 -0.205633
-0.0875691 0.108199 -0.202927
-0.0813265 0.10916 -0.204731
-0.0798032 0.10868 -0.203829
-0.0758082 0.109641 -0.205633
-0.072491 0.108199 -0.202927
-0.0690114 0.108199 -0.202927
-0.0655318 0.108199 -0.202927
-0.064055 0.109641 -0.205633
-0.0628796 0.109641 -0.205633
-0.0504537 0.108199 -0.202927
-0.0484175 0.106275 -0.19932
-0.0485619 0.10916 -0.204731
-0.0406259 0.106756 -0.200221
-0.0334966 0.109641 -0.205633
-0.0323213 0.109641 -0.205633
-0.023777 0.108199 -0.202927
-0.0177381 0.106756 -0.200221
0.00173978 0.108199 -0.202927
0.0180577 0.10868 -0.203829
0.0226172 0.108199 -0.202927
0.0236714 0.107718 -0.202025
0.0417703 0.106756 -0.200221
0.0440745 0.109641 -0.205633
0.0574128 0.108199 -0.202927
0.061163 0.10868 -0.203829
0.0626038 0.10916 -0.204731
0.070795 0.10916 -0.204731
0.0791769 0.106275 -0.19932
0.0828601 0.109641 -0.205633
-0.0814064 0.106833 -0.202768
-0.0629312 0.106833 -0.202768
-0.0615007 0.106356 -0.201862
-0.0606218 0.106833 -0.202768
-0.0520724 0.108264 -0.205483
-0.0484175 0.105402 -0.200052
-0.0477061 0.106356 -0.201862
-0.0473917 0.108264 -0.205483
-0.0462215 0.108264 -0.205483
-0.0321795 0.108264 -0.205483
-0.0308728 0.107787 -0.204578
-0.0273777 0.107787 -0.204578
-0.0263287 0.108264 -0.205483
-0.0236714 0.106833 -0.202768
-0.0222151 0.105402 -0.200052
-0.0215527 0.107787 -0.204578
-0.0191376 0.10731 -0.203673
0.00873758 0.107787 -0.204578
0.0216481 0.108264 -0.205483
0.0363731 0.106833 -0.202768
0.0392005 0.108264 -0.205483
0.0403707 0.108264 -0.205483
0.056503 0.107787 -0.204578
0.061163 0.107787 -0.204578
0.0626038 0.108264 -0.205483
-0.0941081 0.105949 -0.20351
-0.0860123 0.10453 -0.200784
-0.0689238 0.10453 -0.200784
-0.0693181 0.106895 -0.205327
-0.06755 0.105949 -0.20351
-0.064372 0.106422 -0.204418
-0.0623281 0.106895 -0.205327
-0.0608924 0.106422 -0.204418
-0.0490748 0.105949 -0.20351
-0.0479201 0.105949 -0.20351
-0.0446544 0.106422 -0.204418
-0.0398372 0.105949 -0.20351
-0.0378628 0.106895 -0.205327
-0.0282902 0.105949 -0.20351
-0.0271355 0.105949 -0.20351
-0.0262127 0.106895 -0.205327
-0.0248261 0.105949 -0.20351
-0.0215527 0.106895 -0.205327
-0.0190526 0.105949 -0.20351
-0.0131605 0.105003 -0.201693
0.00407754 0.106895 -0.205327
0.00747205 0.105476 -0.202601
0.0330559 0.106422 -0.204418
0.0417703 0.105003 -0.201693
0.0429147 0.105003 -0.201693
0.0646581 0.105003 -0.201693
0.07038 0.105003 -0.201693
0.0779423 0.105949 -0.20351
0.0809682 0.106895 -0.205327
-0.0840895 0.105533 -0.205164
-0.0821925 0.104595 -0.20334
-0.0791769 0.103657 -0.201516
